ply
format ascii 1.0
element vertex 1243
property float x
property float y
property float z
property uchar red
property uchar green
property uchar blue
end_header
-0.144271 -0.350725 -0.633962 80 30 27
-0.142474 -0.350193 -0.632207 86 22 17
-0.140683 -0.349661 -0.630450 85 21 16
-0.139061 -0.349444 -0.629632 86 17 12
-0.137604 -0.349541 -0.629753 86 17 12
-0.135988 -0.349324 -0.628934 86 17 12
-0.134374 -0.349106 -0.628116 85 16 11
-0.132764 -0.348888 -0.627297 85 13 9
-0.131158 -0.348669 -0.626478 87 15 11
-0.129554 -0.348451 -0.625658 87 15 11
-0.127954 -0.348232 -0.624838 87 15 11
-0.126507 -0.348329 -0.624958 89 18 7
-0.125059 -0.348426 -0.625078 84 13 2
-0.123466 -0.348207 -0.624257 126 80 33
-0.122020 -0.348304 -0.624377 122 76 29
-0.120574 -0.348401 -0.624496 121 87 36
-0.119129 -0.348498 -0.624616 59 25 0
-0.117543 -0.348278 -0.623795 67 43 18
-0.115961 -0.348058 -0.622974 87 63 38
-0.114519 -0.348155 -0.623093 47 20 0
-0.113076 -0.348251 -0.623212 95 68 46
-0.111634 -0.348348 -0.623331 63 36 14
-0.110191 -0.348445 -0.623451 86 59 37
-0.108749 -0.348542 -0.623570 78 54 31
-0.107306 -0.348638 -0.623689 54 30 7
-0.105864 -0.348735 -0.623809 61 34 8
-0.104421 -0.348832 -0.623928 67 40 14
-0.102856 -0.348611 -0.623105 111 80 39
-0.101415 -0.348707 -0.623224 110 79 38
-0.099974 -0.348804 -0.623343 111 80 30
-0.098533 -0.348901 -0.623463 111 80 30
-0.097092 -0.348997 -0.623582 119 82 39
-0.095652 -0.349094 -0.623701 69 32 0
-0.094211 -0.349190 -0.623820 71 15 1
-0.092770 -0.349287 -0.623939 73 17 3
-0.091329 -0.349384 -0.624058 77 16 8
-0.089780 -0.349161 -0.623234 77 16 8
-0.088341 -0.349258 -0.623353 77 17 6
-0.086901 -0.349354 -0.623472 77 17 6
-0.085462 -0.349451 -0.623591 79 16 6
-0.084023 -0.349547 -0.623710 79 16 6
-0.082584 -0.349644 -0.623829 79 16 6
-0.081145 -0.349741 -0.623948 79 16 6
-0.079706 -0.349837 -0.624067 80 17 7
-0.078266 -0.349934 -0.624186 79 16 6
-0.076827 -0.350030 -0.624305 80 17 7
-0.075388 -0.350127 -0.624424 80 17 7
-0.073949 -0.350223 -0.624543 82 19 7
-0.072510 -0.350320 -0.624662 84 21 9
-0.070983 -0.350096 -0.623836 85 22 8
-0.069546 -0.350192 -0.623955 85 22 8
-0.068108 -0.350289 -0.624074 92 28 10
-0.066588 -0.350064 -0.623248 97 33 15
-0.065072 -0.349840 -0.622421 103 37 13
-0.063638 -0.349936 -0.622540 101 35 11
-0.062126 -0.349712 -0.621713 105 33 8
-0.060693 -0.349808 -0.621831 105 33 8
-0.059187 -0.349583 -0.621003 103 34 8
-0.057756 -0.349678 -0.621122 103 34 8
-0.056325 -0.349774 -0.621240 79 23 7
-0.054825 -0.349549 -0.620412 73 17 1
-0.053395 -0.349645 -0.620530 57 17 4
-0.051966 -0.349741 -0.620648 56 16 3
-0.050537 -0.349837 -0.620767 49 15 5
-0.049107 -0.349932 -0.620885 49 15 5
-0.047678 -0.350028 -0.621003 49 15 7
-0.046248 -0.350124 -0.621121 49 15 7
-0.044819 -0.350220 -0.621239 52 16 8
-0.043390 -0.350316 -0.621358 52 16 8
-0.041960 -0.350412 -0.621476 53 15 6
-0.040531 -0.350507 -0.621594 54 16 7
-0.039102 -0.350603 -0.621712 56 15 7
-0.037672 -0.350699 -0.621830 56 15 7
-0.036243 -0.350795 -0.621948 60 14 6
-0.034814 -0.350891 -0.622067 62 16 8
-0.033384 -0.350987 -0.622185 75 22 7
-0.031955 -0.351083 -0.622303 105 52 37
-0.030526 -0.351178 -0.622421 110 54 17
-0.029096 -0.351274 -0.622539 111 55 18
-0.027667 -0.351370 -0.622658 111 58 13
-0.026238 -0.351466 -0.622776 112 59 14
-0.024808 -0.351562 -0.622894 110 57 12
-0.023379 -0.351658 -0.623012 110 57 12
-0.021950 -0.351754 -0.623130 113 55 12
-0.020520 -0.351849 -0.623248 112 54 11
-0.019091 -0.351945 -0.623367 112 54 11
-0.017662 -0.352041 -0.623485 112 54 11
-0.016232 -0.352137 -0.623603 111 53 8
-0.014803 -0.352233 -0.623721 112 54 9
-0.013374 -0.352329 -0.623839 111 51 9
-0.011944 -0.352424 -0.623958 107 47 5
-0.010515 -0.352520 -0.624076 106 39 6
-0.009086 -0.352616 -0.624194 103 36 3
-0.007656 -0.352712 -0.624312 106 37 7
-0.006227 -0.352808 -0.624430 105 36 6
-0.004798 -0.352904 -0.624549 105 36 8
-0.003368 -0.353000 -0.624667 104 35 7
-0.001939 -0.353095 -0.624785 95 32 9
-0.000510 -0.353191 -0.624903 94 31 8
0.000920 -0.353287 -0.625021 84 26 10
0.002349 -0.353383 -0.625139 80 22 6
0.003778 -0.353479 -0.625258 73 19 9
0.005208 -0.353575 -0.625376 72 18 8
0.006638 -0.353997 -0.626446 78 21 12
0.008069 -0.354093 -0.626564 81 24 15
0.009505 -0.354515 -0.627635 88 26 23
0.010944 -0.354938 -0.628706 92 30 27
0.012386 -0.355360 -0.629778 89 38 40
0.013831 -0.355783 -0.630849 107 56 58
-0.146218 -0.350204 -0.637218 77 27 24
-0.144413 -0.349676 -0.635461 80 30 27
-0.142614 -0.349147 -0.633705 88 22 18
-0.140822 -0.348618 -0.631948 86 20 16
-0.139199 -0.348402 -0.631129 86 17 12
-0.137740 -0.348500 -0.631250 86 17 12
-0.136122 -0.348284 -0.630431 88 16 12
-0.134507 -0.348068 -0.629612 87 15 11
-0.132895 -0.347851 -0.628792 85 13 9
-0.131287 -0.347635 -0.627972 87 15 11
-0.129682 -0.347418 -0.627152 87 15 11
-0.128080 -0.347201 -0.626332 85 13 9
-0.126482 -0.346983 -0.625512 88 17 8
-0.125034 -0.347080 -0.625631 84 13 4
-0.123587 -0.347177 -0.625751 123 71 31
-0.122140 -0.347274 -0.625871 125 73 33
-0.120692 -0.347371 -0.625990 123 89 40
-0.119245 -0.347468 -0.626110 67 33 0
-0.117658 -0.347250 -0.625288 59 36 6
-0.116074 -0.347032 -0.624467 106 83 53
-0.114630 -0.347129 -0.624586 81 57 30
-0.113186 -0.347226 -0.624706 60 36 9
-0.111742 -0.347322 -0.624825 65 41 16
-0.110298 -0.347419 -0.624944 95 71 46
-0.108854 -0.347516 -0.625064 99 77 49
-0.107281 -0.347297 -0.624241 101 79 51
-0.105839 -0.347394 -0.624360 82 54 26
-0.104397 -0.347490 -0.624480 107 79 51
-0.102831 -0.347271 -0.623656 104 73 32
-0.101390 -0.347368 -0.623775 110 79 38
-0.099949 -0.347464 -0.623895 114 83 31
-0.098508 -0.347561 -0.624014 112 81 29
-0.097068 -0.347657 -0.624133 118 82 34
-0.095627 -0.347754 -0.624252 95 59 11
-0.094186 -0.347851 -0.624371 68 15 0
-0.092745 -0.347947 -0.624490 71 18 1
-0.091304 -0.348044 -0.624609 77 17 6
-0.089755 -0.347823 -0.623785 77 17 6
-0.088316 -0.347920 -0.623904 77 16 8
-0.086877 -0.348016 -0.624023 76 15 7
-0.085438 -0.348113 -0.624142 78 14 7
-0.083998 -0.348209 -0.624261 78 14 7
-0.082559 -0.348306 -0.624380 79 16 6
-0.081120 -0.348402 -0.624499 79 16 6
-0.079681 -0.348499 -0.624618 79 16 6
-0.078242 -0.348595 -0.624737 78 15 5
-0.076803 -0.348692 -0.624856 79 16 6
-0.075363 -0.348788 -0.624975 79 16 6
-0.073924 -0.348885 -0.625094 80 17 7
-0.072485 -0.348981 -0.625213 82 19 9
-0.070959 -0.348759 -0.624386 82 19 9
-0.069521 -0.348856 -0.624505 82 19 9
-0.068084 -0.348952 -0.624624 84 21 9
-0.066564 -0.348729 -0.623797 85 22 10
-0.065047 -0.348506 -0.622970 94 30 12
-0.063613 -0.348603 -0.623088 97 33 15
-0.062101 -0.348379 -0.622260 102 33 12
-0.060669 -0.348475 -0.622379 102 33 12
-0.059162 -0.348252 -0.621551 97 31 11
-0.057731 -0.348348 -0.621669 90 24 4
-0.056300 -0.348444 -0.621787 70 19 5
-0.054800 -0.348220 -0.620959 68 17 3
-0.053371 -0.348316 -0.621077 56 15 5
-0.051941 -0.348412 -0.621195 55 14 4
-0.050512 -0.348507 -0.621313 53 15 6
-0.049083 -0.348603 -0.621432 52 14 5
-0.047653 -0.348699 -0.621550 53 15 6
-0.046224 -0.348795 -0.621668 53 15 6
-0.044795 -0.348891 -0.621786 53 15 8
-0.043365 -0.348987 -0.621904 53 15 8
-0.041936 -0.349083 -0.622022 55 14 6
-0.040507 -0.349178 -0.622141 56 15 7
-0.039077 -0.349274 -0.622259 58 15 8
-0.037648 -0.349370 -0.622377 58 15 8
-0.036219 -0.349466 -0.622495 62 14 6
-0.034789 -0.349562 -0.622613 64 16 8
-0.033360 -0.349658 -0.622732 77 21 7
-0.031931 -0.349753 -0.622850 102 46 32
-0.030501 -0.349849 -0.622968 111 55 16
-0.029072 -0.349945 -0.623086 112 56 17
-0.027643 -0.350041 -0.623204 112 57 13
-0.026213 -0.350137 -0.623322 113 58 14
-0.024784 -0.350233 -0.623441 110 55 11
-0.023355 -0.350329 -0.623559 110 55 11
-0.021925 -0.350424 -0.623677 112 54 11
-0.020496 -0.350520 -0.623795 111 53 10
-0.019067 -0.350616 -0.623913 112 54 11
-0.017637 -0.350712 -0.624032 111 53 10
-0.016208 -0.350808 -0.624150 111 51 9
-0.014779 -0.350904 -0.624268 108 48 6
-0.013349 -0.351000 -0.624386 109 42 7
-0.011920 -0.351095 -0.624504 106 39 4
-0.010490 -0.351191 -0.624622 103 35 7
-0.009061 -0.351287 -0.624741 102 34 6
-0.007632 -0.351383 -0.624859 102 34 8
-0.006202 -0.351479 -0.624977 102 34 8
-0.004773 -0.351575 -0.625095 95 32 9
-0.003344 -0.351670 -0.625213 93 30 7
-0.001914 -0.351766 -0.625332 76 25 9
-0.000485 -0.351862 -0.625450 71 20 4
0.000944 -0.351958 -0.625568 65 20 7
0.002374 -0.352054 -0.625686 66 21 8
0.003803 -0.352150 -0.625804 67 20 9
0.005232 -0.352246 -0.625923 68 21 10
0.006663 -0.352666 -0.626994 76 22 14
0.008097 -0.353087 -0.628065 79 25 17
0.009534 -0.353508 -0.629136 88 26 23
0.010974 -0.353929 -0.630208 92 30 27
0.012418 -0.354350 -0.631280 89 38 40
0.013865 -0.354772 -0.632353 105 54 56
-0.146362 -0.349148 -0.638719 74 24 21
-0.144555 -0.348623 -0.636962 80 30 27
-0.142755 -0.348098 -0.635204 88 22 18
-0.140961 -0.347572 -0.633446 86 20 16
-0.139336 -0.347358 -0.632627 87 18 13
-0.137876 -0.347456 -0.632748 86 17 12
-0.136256 -0.347241 -0.631928 88 16 12
-0.134640 -0.347027 -0.631109 87 15 11
-0.133026 -0.346812 -0.630289 87 15 11
-0.131417 -0.346597 -0.629468 87 15 11
-0.129810 -0.346382 -0.628648 87 15 11
-0.128206 -0.346166 -0.627827 85 13 9
-0.126606 -0.345950 -0.627006 88 17 8
-0.125157 -0.346047 -0.627126 89 18 9
-0.123708 -0.346145 -0.627246 101 47 9
-0.122115 -0.345928 -0.626424 131 77 39
-0.120667 -0.346026 -0.626544 118 82 32
-0.119220 -0.346123 -0.626664 108 72 22
-0.117633 -0.345906 -0.625841 80 50 18
-0.116187 -0.346003 -0.625961 104 74 42
-0.114605 -0.345786 -0.625138 103 77 46
-0.113161 -0.345883 -0.625258 98 72 41
-0.111717 -0.345980 -0.625377 88 62 33
-0.110273 -0.346076 -0.625497 95 69 40
-0.108829 -0.346173 -0.625616 106 78 50
-0.107257 -0.345956 -0.624793 81 53 25
-0.105814 -0.346052 -0.624912 75 42 15
-0.104372 -0.346149 -0.625031 116 83 56
-0.102806 -0.345931 -0.624207 88 52 15
-0.101365 -0.346028 -0.624327 85 49 12
-0.099924 -0.346124 -0.624446 117 83 32
-0.098484 -0.346221 -0.624565 116 82 31
-0.097043 -0.346318 -0.624684 114 78 26
-0.095602 -0.346414 -0.624803 117 81 29
-0.094161 -0.346511 -0.624922 59 7 0
-0.092720 -0.346607 -0.625041 71 19 0
-0.091280 -0.346704 -0.625160 76 16 5
-0.089730 -0.346485 -0.624335 76 16 5
-0.088291 -0.346581 -0.624454 76 15 7
-0.086852 -0.346678 -0.624573 76 15 7
-0.085413 -0.346774 -0.624692 78 14 7
-0.083974 -0.346871 -0.624811 78 14 7
-0.082534 -0.346967 -0.624930 78 14 7
-0.081095 -0.347064 -0.625049 78 14 7
-0.079656 -0.347161 -0.625168 79 16 6
-0.078217 -0.347257 -0.625287 78 15 5
-0.076778 -0.347354 -0.625406 79 16 6
-0.075339 -0.347450 -0.625525 79 16 6
-0.073899 -0.347547 -0.625644 79 16 6
-0.072460 -0.347643 -0.625763 79 16 6
-0.070934 -0.347422 -0.624936 79 16 6
-0.069496 -0.347519 -0.625055 79 16 6
-0.068059 -0.347615 -0.625174 82 19 9
-0.066539 -0.347394 -0.624346 82 19 9
-0.065023 -0.347173 -0.623518 84 21 9
-0.063588 -0.347269 -0.623637 87 24 12
-0.062077 -0.347047 -0.622808 92 28 12
-0.060644 -0.347143 -0.622927 94 30 14
-0.059137 -0.346921 -0.622098 87 27 12
-0.057706 -0.347017 -0.622216 78 18 3
-0.056275 -0.347113 -0.622335 66 17 5
-0.054775 -0.346891 -0.621505 63 14 2
-0.053346 -0.346987 -0.621624 56 15 5
-0.051917 -0.347082 -0.621742 55 14 4
-0.050487 -0.347178 -0.621860 53 15 6
-0.049058 -0.347274 -0.621978 53 15 6
-0.047629 -0.347370 -0.622096 53 15 6
-0.046199 -0.347466 -0.622215 53 15 6
-0.044770 -0.347562 -0.622333 56 13 6
-0.043341 -0.347658 -0.622451 57 14 7
-0.041911 -0.347753 -0.622569 57 14 7
-0.040482 -0.347849 -0.622687 58 15 8
-0.039053 -0.347945 -0.622806 58 15 8
-0.037623 -0.348041 -0.622924 58 15 8
-0.036194 -0.348137 -0.623042 62 14 6
-0.034765 -0.348233 -0.623160 64 16 8
-0.033335 -0.348328 -0.623278 75 19 5
-0.031906 -0.348424 -0.623396 92 36 22
-0.030477 -0.348520 -0.623515 112 56 19
-0.029047 -0.348616 -0.623633 112 56 19
-0.027618 -0.348712 -0.623751 112 57 13
-0.026189 -0.348808 -0.623869 112 57 13
-0.024759 -0.348904 -0.623987 111 53 10
-0.023330 -0.348999 -0.624106 111 53 10
-0.021901 -0.349095 -0.624224 112 54 11
-0.020471 -0.349191 -0.624342 111 53 10
-0.019042 -0.349287 -0.624460 112 52 10
-0.017613 -0.349383 -0.624578 109 49 7
-0.016183 -0.349479 -0.624696 107 44 5
-0.014754 -0.349575 -0.624815 104 41 2
-0.013325 -0.349670 -0.624933 104 36 6
-0.011895 -0.349766 -0.625051 101 33 3
-0.010466 -0.349862 -0.625169 99 33 9
-0.009037 -0.349958 -0.625287 96 30 6
-0.007607 -0.350054 -0.625406 92 31 9
-0.006178 -0.350150 -0.625524 85 24 2
-0.004749 -0.350245 -0.625642 72 21 5
-0.003319 -0.350341 -0.625760 70 19 3
-0.001890 -0.350437 -0.625878 60 20 7
-0.000461 -0.350533 -0.625996 60 20 7
0.000969 -0.350629 -0.626115 61 21 8
0.002398 -0.350725 -0.626233 61 21 8
0.003827 -0.350821 -0.626351 63 21 9
0.005257 -0.351239 -0.627423 64 22 10
0.006689 -0.351659 -0.628494 76 22 14
0.008124 -0.352078 -0.629566 79 25 17
0.009563 -0.352497 -0.630639 88 26 23
0.011005 -0.352917 -0.631711 92 30 27
0.012451 -0.353337 -0.632784 88 37 39
0.013900 -0.353757 -0.633857 104 53 55
-0.146506 -0.348090 -0.640222 71 22 21
-0.144698 -0.347568 -0.638464 79 30 29
-0.142896 -0.347046 -0.636705 88 22 18
-0.141100 -0.346523 -0.634946 86 20 16
-0.139474 -0.346310 -0.634126 87 18 13
-0.138012 -0.346409 -0.634247 86 17 12
-0.136390 -0.346196 -0.633427 88 16 12
-0.134772 -0.345983 -0.632607 87 15 11
-0.133157 -0.345770 -0.631786 87 15 11
-0.131546 -0.345556 -0.630966 87 15 11
-0.129938 -0.345342 -0.630145 87 15 11
-0.128333 -0.345129 -0.629324 87 15 11
-0.126731 -0.344914 -0.628502 88 17 8
-0.125280 -0.345012 -0.628622 89 18 9
-0.123830 -0.345109 -0.628742 88 31 0
-0.122234 -0.344894 -0.627920 137 80 48
-0.120785 -0.344992 -0.628040 119 80 29
-0.119336 -0.345089 -0.628159 119 80 29
-0.117748 -0.344874 -0.627337 72 38 5
-0.116300 -0.344971 -0.627457 95 61 28
-0.114717 -0.344756 -0.626634 86 55 26
-0.113136 -0.344540 -0.625810 100 69 40
-0.111692 -0.344637 -0.625930 64 33 4
-0.110248 -0.344734 -0.626049 97 66 37
-0.108804 -0.344830 -0.626168 120 87 58
-0.107360 -0.344927 -0.626288 72 39 10
-0.105789 -0.344711 -0.625464 79 39 15
-0.104347 -0.344808 -0.625583 91 51 27
-0.102781 -0.344591 -0.624759 104 65 34
-0.101340 -0.344688 -0.624878 68 29 0
-0.099900 -0.344785 -0.624997 127 91 43
-0.098459 -0.344881 -0.625116 118 82 34
-0.097018 -0.344978 -0.625235 114 79 24
-0.095577 -0.345074 -0.625354 115 80 25
-0.094136 -0.345171 -0.625473 60 11 0
-0.092696 -0.345268 -0.625592 70 21 0
-0.091255 -0.345364 -0.625712 75 17 5
-0.089706 -0.345147 -0.624886 75 17 5
-0.088266 -0.345243 -0.625005 76 15 7
-0.086827 -0.345340 -0.625124 76 15 7
-0.085388 -0.345436 -0.625243 78 14 7
-0.083949 -0.345533 -0.625362 78 14 7
-0.082510 -0.345629 -0.625481 78 14 7
-0.081070 -0.345726 -0.625600 78 14 7
-0.079631 -0.345822 -0.625719 78 15 5
-0.078192 -0.345919 -0.625838 78 15 5
-0.076753 -0.346015 -0.625957 78 15 5
-0.075314 -0.346112 -0.626076 78 15 5
-0.073784 -0.345893 -0.625248 78 15 5
-0.072347 -0.345989 -0.625367 79 16 6
-0.070909 -0.346086 -0.625486 79 16 6
-0.069472 -0.346182 -0.625605 78 15 5
-0.068034 -0.346278 -0.625724 79 16 6
-0.066514 -0.346059 -0.624895 79 16 6
-0.064998 -0.345839 -0.624067 78 18 7
-0.063564 -0.345935 -0.624185 80 20 9
-0.062052 -0.345715 -0.623356 81 21 10
-0.060619 -0.345811 -0.623475 81 21 10
-0.059113 -0.345591 -0.622645 79 21 9
-0.057682 -0.345687 -0.622764 75 17 5
-0.056251 -0.345783 -0.622882 67 15 6
-0.054751 -0.345562 -0.622052 65 13 4
-0.053321 -0.345657 -0.622170 59 13 5
-0.051892 -0.345753 -0.622289 58 12 4
-0.050463 -0.345849 -0.622407 55 14 4
-0.049033 -0.345945 -0.622525 55 14 4
-0.047604 -0.346041 -0.622643 57 14 5
-0.046175 -0.346137 -0.622761 56 13 4
-0.044745 -0.346233 -0.622879 58 12 4
-0.043316 -0.346328 -0.622998 59 13 5
-0.041887 -0.346424 -0.623116 59 13 5
-0.040457 -0.346520 -0.623234 60 14 6
-0.039028 -0.346616 -0.623352 60 14 6
-0.037599 -0.346712 -0.623470 60 14 6
-0.036169 -0.346808 -0.623589 62 14 6
-0.034740 -0.346904 -0.623707 64 16 8
-0.033311 -0.346999 -0.623825 72 19 6
-0.031881 -0.347095 -0.623943 79 26 13
-0.030452 -0.347191 -0.624061 106 49 19
-0.029023 -0.347287 -0.624180 110 53 23
-0.027593 -0.347383 -0.624298 111 56 12
-0.026164 -0.347479 -0.624416 111 56 12
-0.024735 -0.347574 -0.624534 111 53 10
-0.023305 -0.347670 -0.624652 110 52 9
-0.021876 -0.347766 -0.624770 111 51 9
-0.020447 -0.347862 -0.624889 109 49 7
-0.019017 -0.347958 -0.625007 108 44 8
-0.017588 -0.348054 -0.625125 103 39 3
-0.016159 -0.348150 -0.625243 102 37 6
-0.014729 -0.348245 -0.625361 102 37 6
-0.013300 -0.348341 -0.625480 95 32 7
-0.011871 -0.348437 -0.625598 92 29 4
-0.010441 -0.348533 -0.625716 88 29 11
-0.009012 -0.348629 -0.625834 81 22 4
-0.007583 -0.348725 -0.625952 72 21 7
-0.006153 -0.348821 -0.626070 69 18 4
-0.004724 -0.348916 -0.626189 61 19 7
-0.003305 -0.349333 -0.627260 60 18 6
-0.001874 -0.349429 -0.627378 57 19 8
-0.000443 -0.349525 -0.627497 57 19 8
0.000988 -0.349621 -0.627615 60 19 9
0.002419 -0.349717 -0.627733 61 20 10
0.003850 -0.349813 -0.627852 65 19 11
0.005281 -0.350230 -0.628924 66 20 12
0.006715 -0.350648 -0.629996 78 21 14
0.008152 -0.351066 -0.631069 81 24 17
0.009593 -0.351484 -0.632142 87 26 20
0.011036 -0.351902 -0.633216 92 31 25
0.012484 -0.352321 -0.634289 87 36 38
0.013934 -0.352740 -0.635363 103 52 54
-0.146650 -0.347028 -0.641727 69 20 21
-0.144840 -0.346509 -0.639967 80 31 32
-0.143036 -0.345990 -0.638207 87 23 18
-0.141239 -0.345471 -0.636446 85 21 16
-0.139611 -0.345260 -0.635626 86 17 12
-0.137987 -0.345049 -0.634806 86 17 12
-0.136365 -0.344838 -0.633986 86 17 12
-0.134747 -0.344626 -0.633165 85 16 11
-0.133132 -0.344414 -0.632344 87 15 11
-0.131521 -0.344203 -0.631522 87 15 11
-0.129913 -0.343990 -0.630701 87 15 11
-0.128459 -0.344088 -0.630821 87 15 11
-0.126855 -0.343875 -0.629999 88 17 10
-0.125403 -0.343973 -0.630119 90 19 12
-0.123951 -0.344070 -0.630239 79 19 0
-0.122354 -0.343857 -0.629417 137 77 48
-0.120760 -0.343644 -0.628594 117 78 27
-0.119311 -0.343741 -0.628714 122 83 32
-0.117723 -0.343528 -0.627890 73 37 0
-0.116276 -0.343625 -0.628010 90 54 17
-0.114692 -0.343411 -0.627186 85 53 21
-0.113111 -0.343197 -0.626363 113 81 49
-0.111667 -0.343294 -0.626482 63 30 1
-0.110223 -0.343391 -0.626601 100 67 38
-0.108779 -0.343488 -0.626721 127 89 62
-0.107335 -0.343585 -0.626840 63 25 0
-0.105765 -0.343370 -0.626015 82 43 14
-0.104322 -0.343467 -0.626135 81 42 13
-0.102756 -0.343252 -0.625310 118 79 48
-0.101316 -0.343348 -0.625429 63 24 0
-0.099875 -0.343445 -0.625548 106 66 24
-0.098434 -0.343541 -0.625667 114 74 32
-0.096993 -0.343638 -0.625786 114 79 22
-0.095552 -0.343735 -0.625905 119 84 27
-0.094112 -0.343831 -0.626024 67 18 0
-0.092671 -0.343928 -0.626144 69 20 0
-0.091230 -0.344025 -0.626263 75 17 5
-0.089681 -0.343808 -0.625436 75 17 5
-0.088242 -0.343905 -0.625555 76 15 7
-0.086802 -0.344001 -0.625674 76 15 7
-0.085363 -0.344098 -0.625793 77 13 6
-0.083924 -0.344194 -0.625912 77 13 6
-0.082485 -0.344291 -0.626031 78 14 7
-0.080947 -0.344074 -0.625204 78 14 7
-0.079510 -0.344170 -0.625323 78 14 7
-0.078072 -0.344267 -0.625441 77 13 6
-0.076635 -0.344363 -0.625560 78 14 7
-0.075197 -0.344460 -0.625679 78 14 7
-0.073759 -0.344556 -0.625798 78 15 5
-0.072322 -0.344652 -0.625917 78 15 5
-0.070884 -0.344749 -0.626036 78 15 5
-0.069361 -0.344531 -0.625207 78 15 5
-0.067926 -0.344627 -0.625326 78 15 5
-0.066490 -0.344724 -0.625445 78 15 5
-0.064973 -0.344505 -0.624615 77 17 6
-0.063460 -0.344287 -0.623786 77 17 6
-0.062027 -0.344383 -0.623904 76 18 6
-0.060595 -0.344479 -0.624023 76 18 6
-0.059088 -0.344260 -0.623193 73 16 7
-0.057657 -0.344356 -0.623311 72 15 6
-0.056226 -0.344452 -0.623429 65 13 4
-0.054795 -0.344548 -0.623548 65 13 4
-0.053364 -0.344644 -0.623666 61 13 5
-0.051933 -0.344740 -0.623784 60 12 4
-0.050502 -0.344836 -0.623903 56 13 4
-0.049071 -0.344932 -0.624021 56 13 4
-0.047640 -0.345028 -0.624139 59 13 5
-0.046209 -0.345124 -0.624258 59 13 5
-0.044778 -0.345220 -0.624376 59 13 5
-0.043347 -0.345316 -0.624494 59 13 5
-0.041916 -0.345412 -0.624613 59 13 5
-0.040485 -0.345507 -0.624731 59 13 5
-0.039054 -0.345603 -0.624849 60 14 6
-0.037623 -0.345699 -0.624968 60 14 6
-0.036193 -0.345795 -0.625086 62 14 6
-0.034762 -0.345891 -0.625204 62 14 6
-0.033331 -0.345987 -0.625323 69 17 6
-0.031900 -0.346083 -0.625441 74 22 11
-0.030469 -0.346179 -0.625559 88 29 9
-0.029038 -0.346275 -0.625678 97 38 18
-0.027607 -0.346371 -0.625796 113 54 16
-0.026176 -0.346467 -0.625914 111 52 14
-0.024745 -0.346563 -0.626032 110 52 11
-0.023314 -0.346659 -0.626151 107 49 8
-0.021883 -0.346755 -0.626269 106 42 6
-0.020452 -0.346851 -0.626387 103 39 3
-0.019021 -0.346947 -0.626506 101 36 7
-0.017590 -0.347043 -0.626624 99 34 5
-0.016159 -0.347139 -0.626742 95 32 9
-0.014728 -0.347235 -0.626861 91 28 5
-0.013297 -0.347331 -0.626979 79 23 7
-0.011866 -0.347427 -0.627097 77 21 5
-0.010435 -0.347523 -0.627216 69 20 8
-0.009004 -0.347619 -0.627334 67 18 6
-0.007573 -0.347715 -0.627452 64 19 8
-0.006142 -0.347811 -0.627571 62 17 6
-0.004711 -0.347906 -0.627689 60 17 8
-0.003290 -0.348322 -0.628761 58 15 6
-0.001858 -0.348418 -0.628879 59 18 8
-0.000425 -0.348514 -0.628998 60 19 9
0.001008 -0.348610 -0.629116 62 19 10
0.002440 -0.348706 -0.629235 63 20 11
0.003873 -0.348802 -0.629353 71 18 12
0.005305 -0.349218 -0.630426 72 19 13
0.006741 -0.349634 -0.631500 81 22 15
0.008180 -0.350051 -0.632573 83 24 17
0.009622 -0.350468 -0.633647 87 26 20
0.011068 -0.350885 -0.634721 92 31 25
0.012516 -0.351302 -0.635795 89 34 40
0.013978 -0.352040 -0.637826 102 47 53
-0.146624 -0.345656 -0.642291 69 20 21
-0.144814 -0.345141 -0.640530 80 31 32
-0.143011 -0.344625 -0.638769 87 22 20
-0.141378 -0.344416 -0.637949 85 20 18
-0.139749 -0.344206 -0.637128 86 17 14
-0.138122 -0.343997 -0.636307 86 17 14
-0.136499 -0.343787 -0.635486 86 17 12
-0.134880 -0.343578 -0.634665 85 16 11
-0.133263 -0.343367 -0.633844 87 15 11
-0.131650 -0.343157 -0.633022 87 15 11
-0.130040 -0.342947 -0.632200 87 15 11
-0.128585 -0.343044 -0.632320 87 15 11
-0.126980 -0.342833 -0.631497 88 17 10
-0.125526 -0.342931 -0.631618 89 18 11
-0.124072 -0.343028 -0.631738 80 17 0
-0.122473 -0.342817 -0.630915 133 70 47
-0.120878 -0.342606 -0.630092 119 79 25
-0.119428 -0.342703 -0.630211 124 84 30
-0.117838 -0.342491 -0.629388 73 37 0
-0.116251 -0.342279 -0.628564 96 60 19
-0.114667 -0.342067 -0.627739 89 55 20
-0.113221 -0.342164 -0.627859 112 78 43
-0.111776 -0.342261 -0.627979 64 30 0
-0.110198 -0.342048 -0.627154 93 59 26
-0.108754 -0.342145 -0.627273 124 87 57
-0.107310 -0.342242 -0.627393 67 30 0
-0.105740 -0.342029 -0.626567 112 73 42
-0.104297 -0.342125 -0.626686 96 57 26
-0.102732 -0.341912 -0.625861 107 65 33
-0.101291 -0.342008 -0.625980 92 50 18
-0.099850 -0.342105 -0.626099 99 56 19
-0.098409 -0.342202 -0.626218 106 63 26
-0.096968 -0.342298 -0.626337 116 78 22
-0.095528 -0.342395 -0.626456 117 79 23
-0.094087 -0.342491 -0.626576 78 30 0
-0.092646 -0.342588 -0.626695 68 20 0
-0.091205 -0.342685 -0.626814 74 16 4
-0.089656 -0.342470 -0.625987 75 17 5
-0.088217 -0.342567 -0.626106 76 15 7
-0.086778 -0.342663 -0.626225 75 14 6
-0.085338 -0.342760 -0.626344 77 13 6
-0.083899 -0.342856 -0.626463 77 13 6
-0.082360 -0.342641 -0.625635 77 13 6
-0.080824 -0.342426 -0.624807 77 13 6
-0.079388 -0.342522 -0.624925 77 13 6
-0.077952 -0.342618 -0.625044 77 13 6
-0.076516 -0.342714 -0.625163 77 13 6
-0.075080 -0.342811 -0.625281 78 14 7
-0.073644 -0.342907 -0.625400 78 14 7
-0.072208 -0.343003 -0.625519 78 14 7
-0.070773 -0.343100 -0.625638 78 14 7
-0.069251 -0.342883 -0.624808 77 13 6
-0.067817 -0.342979 -0.624927 75 14 6
-0.066383 -0.343075 -0.625045 75 14 6
-0.064868 -0.342859 -0.624215 74 15 6
-0.063356 -0.342641 -0.623385 74 15 6
-0.061925 -0.342737 -0.623504 72 15 6
-0.060494 -0.342833 -0.623622 72 15 6
-0.059063 -0.342929 -0.623740 69 15 5
-0.057633 -0.343025 -0.623858 69 15 5
-0.056202 -0.343121 -0.623977 65 13 4
-0.054771 -0.343217 -0.624095 64 12 3
-0.053340 -0.343313 -0.624213 60 12 4
-0.051909 -0.343409 -0.624332 60 12 4
-0.050478 -0.343505 -0.624450 58 12 4
-0.049047 -0.343601 -0.624568 58 12 4
-0.047616 -0.343697 -0.624687 59 13 5
-0.046185 -0.343793 -0.624805 59 13 5
-0.044754 -0.343889 -0.624923 59 13 5
-0.043323 -0.343985 -0.625042 58 12 4
-0.041892 -0.344081 -0.625160 58 12 4
-0.040513 -0.344492 -0.626229 59 13 5
-0.039081 -0.344588 -0.626348 60 14 6
-0.037648 -0.344684 -0.626466 59 13 5
-0.036216 -0.344780 -0.626585 62 14 6
-0.034783 -0.344876 -0.626703 62 14 6
-0.033350 -0.344972 -0.626821 66 17 7
-0.031918 -0.345068 -0.626940 68 19 9
-0.030485 -0.345164 -0.627058 77 21 7
-0.029053 -0.345260 -0.627177 81 25 11
-0.027620 -0.345356 -0.627295 98 37 11
-0.026187 -0.345452 -0.627414 104 43 17
-0.024755 -0.345549 -0.627532 105 43 13
-0.023322 -0.345645 -0.627651 101 39 9
-0.021890 -0.345741 -0.627769 100 35 8
-0.020457 -0.345837 -0.627888 97 32 5
-0.019024 -0.345933 -0.628006 93 30 9
-0.017592 -0.346029 -0.628124 90 27 6
-0.016159 -0.346125 -0.628243 80 22 6
-0.014726 -0.346221 -0.628361 77 19 3
-0.013294 -0.346317 -0.628480 68 20 5
-0.011861 -0.346413 -0.628598 67 19 4
-0.010429 -0.346509 -0.628717 64 19 8
-0.008996 -0.346605 -0.628835 63 18 7
-0.007563 -0.346701 -0.628954 63 18 7
-0.006131 -0.346797 -0.629072 62 17 6
-0.004698 -0.346894 -0.629191 60 17 8
-0.003276 -0.347307 -0.630263 61 18 9
-0.001841 -0.347404 -0.630382 63 17 9
-0.000407 -0.347500 -0.630501 64 18 10
0.001027 -0.347596 -0.630619 69 19 12
0.002461 -0.347692 -0.630738 69 19 12
0.003896 -0.347788 -0.630856 75 18 11
0.005330 -0.348203 -0.631930 77 20 13
0.006767 -0.348618 -0.633004 82 21 15
0.008208 -0.349033 -0.634078 83 22 16
0.009652 -0.349448 -0.635153 89 25 20
0.011105 -0.350183 -0.637184 94 30 25
0.012557 -0.350598 -0.638259 89 34 40
0.014022 -0.351334 -0.640290 99 44 50
-0.146599 -0.344284 -0.642855 70 22 26
-0.144789 -0.343772 -0.641093 78 30 34
-0.142986 -0.343259 -0.639331 87 22 20
-0.141353 -0.343051 -0.638510 85 20 18
-0.139723 -0.342844 -0.637689 86 17 14
-0.138258 -0.342942 -0.637810 86 17 14
-0.136633 -0.342734 -0.636988 86 17 12
-0.135012 -0.342526 -0.636166 85 16 11
-0.133394 -0.342317 -0.635344 87 15 11
-0.131779 -0.342109 -0.634522 87 15 11
-0.130168 -0.341900 -0.633700 87 16 9
-0.128711 -0.341998 -0.633820 87 16 9
-0.127104 -0.341788 -0.632997 88 17 8
-0.125648 -0.341886 -0.633117 89 18 9
-0.124193 -0.341984 -0.633238 86 20 0
-0.122593 -0.341774 -0.632414 115 49 29
-0.120996 -0.341564 -0.631590 124 82 29
-0.119544 -0.341661 -0.631710 119 77 24
-0.117952 -0.341451 -0.630886 91 54 9
-0.116364 -0.341241 -0.630062 98 61 16
-0.114778 -0.341030 -0.629237 102 69 29
-0.113196 -0.340819 -0.628412 104 71 31
-0.111751 -0.340916 -0.628532 103 66 32
-0.110174 -0.340705 -0.627706 96 59 25
-0.108729 -0.340802 -0.627825 106 67 34
-0.107285 -0.340899 -0.627945 91 52 19
-0.105715 -0.340687 -0.627119 97 58 27
-0.104272 -0.340784 -0.627238 98 59 28
-0.102707 -0.340572 -0.626412 97 56 21
-0.101266 -0.340669 -0.626531 93 52 17
-0.099825 -0.340765 -0.626650 87 44 7
-0.098384 -0.340862 -0.626769 93 50 13
-0.096944 -0.340958 -0.626888 121 81 25
-0.095503 -0.341055 -0.627007 116 76 20
-0.094062 -0.341152 -0.627127 115 68 28
-0.092621 -0.341248 -0.627246 61 14 0
-0.091180 -0.341345 -0.627365 74 16 4
-0.089631 -0.341132 -0.626537 75 17 5
-0.088192 -0.341228 -0.626656 76 15 7
-0.086753 -0.341325 -0.626775 75 14 6
-0.085314 -0.341421 -0.626894 77 13 6
-0.083875 -0.341518 -0.627013 77 13 6
-0.082335 -0.341304 -0.626185 77 13 6
-0.080799 -0.341090 -0.625356 77 13 6
-0.079363 -0.341187 -0.625474 77 13 6
-0.077832 -0.340972 -0.624645 77 13 6
-0.076398 -0.341069 -0.624764 75 14 6
-0.074964 -0.341165 -0.624882 75 14 6
-0.073529 -0.341261 -0.625001 75 14 6
-0.072095 -0.341357 -0.625120 75 14 6
-0.070661 -0.341453 -0.625238 75 14 6
-0.069141 -0.341238 -0.624408 74 13 5
-0.067709 -0.341334 -0.624526 72 13 4
-0.066276 -0.341430 -0.624645 73 14 5
-0.064763 -0.341215 -0.623814 71 14 5
-0.063332 -0.341311 -0.623933 71 14 5
-0.061901 -0.341407 -0.624051 71 14 5
-0.060470 -0.341503 -0.624169 70 13 4
-0.059039 -0.341599 -0.624287 68 14 6
-0.057608 -0.341695 -0.624406 68 14 6
-0.056177 -0.341791 -0.624524 65 13 4
-0.054746 -0.341887 -0.624642 64 12 3
-0.053315 -0.341983 -0.624761 60 12 4
-0.051884 -0.342079 -0.624879 60 12 4
-0.050453 -0.342174 -0.624997 58 12 4
-0.049022 -0.342270 -0.625116 58 12 4
-0.047591 -0.342366 -0.625234 59 13 5
-0.046160 -0.342462 -0.625352 59 13 5
-0.044729 -0.342558 -0.625471 58 12 4
-0.043298 -0.342654 -0.625589 58 12 4
-0.041867 -0.342750 -0.625707 58 12 4
-0.040489 -0.343160 -0.626777 59 13 5
-0.039056 -0.343256 -0.626896 59 13 5
-0.037624 -0.343352 -0.627014 59 13 5
-0.036239 -0.343762 -0.628084 61 13 5
-0.034804 -0.343858 -0.628203 62 14 6
-0.033370 -0.343954 -0.628322 66 16 9
-0.031936 -0.344050 -0.628440 67 17 10
-0.030502 -0.344146 -0.628559 72 18 8
-0.029067 -0.344242 -0.628677 75 21 11
-0.027633 -0.344339 -0.628796 85 26 8
-0.026199 -0.344435 -0.628915 89 30 12
-0.024765 -0.344531 -0.629033 94 32 13
-0.023330 -0.344627 -0.629152 92 30 11
-0.021896 -0.344723 -0.629270 87 25 6
-0.020462 -0.344820 -0.629389 85 23 4
-0.019028 -0.344916 -0.629507 80 22 6
-0.017593 -0.345012 -0.629626 79 21 5
-0.016159 -0.345108 -0.629745 71 18 5
-0.014725 -0.345204 -0.629863 70 17 4
-0.013291 -0.345300 -0.629982 66 19 6
-0.011856 -0.345397 -0.630100 65 18 5
-0.010422 -0.345493 -0.630219 65 18 7
-0.008988 -0.345589 -0.630338 65 18 7
-0.007554 -0.345685 -0.630456 65 18 7
-0.006119 -0.345781 -0.630575 64 17 6
-0.004685 -0.345878 -0.630693 65 18 7
-0.003261 -0.346290 -0.631767 66 19 8
-0.001825 -0.346386 -0.631886 69 17 8
-0.000389 -0.346483 -0.632004 70 18 9
0.001047 -0.346579 -0.632123 74 17 10
0.002483 -0.346675 -0.632242 75 18 11
0.003919 -0.346771 -0.632361 78 17 11
0.005354 -0.347185 -0.633435 80 19 13
0.006793 -0.347598 -0.634510 84 20 15
0.008236 -0.348012 -0.635585 85 21 16
0.009686 -0.348743 -0.637617 89 25 20
0.011143 -0.349474 -0.639649 93 29 24
0.012598 -0.349889 -0.640725 90 33 40
0.014066 -0.350621 -0.642758 98 41 48
-0.146574 -0.342913 -0.643419 74 29 32
-0.144764 -0.342403 -0.641656 74 29 32
-0.142960 -0.341893 -0.639892 87 22 20
-0.141328 -0.341687 -0.639071 85 20 18
-0.139698 -0.341481 -0.638249 86 17 14
-0.138233 -0.341579 -0.638370 86 17 14
-0.136608 -0.341373 -0.637548 88 16 12
-0.134987 -0.341166 -0.636726 87 15 11
-0.133369 -0.340959 -0.635903 87 15 11
-0.131754 -0.340752 -0.635080 87 15 11
-0.130143 -0.340545 -0.634257 87 16 9
-0.128685 -0.340643 -0.634377 87 16 9
-0.127079 -0.340435 -0.633554 88 17 8
-0.125623 -0.340532 -0.633674 89 18 9
-0.124168 -0.340630 -0.633794 87 20 3
-0.122568 -0.340422 -0.632970 101 34 17
-0.121114 -0.340519 -0.633091 128 82 33
-0.119519 -0.340311 -0.632266 120 74 25
-0.117927 -0.340102 -0.631441 114 75 28
-0.116339 -0.339893 -0.630616 93 54 7
-0.114753 -0.339684 -0.629791 104 69 25
-0.113306 -0.339781 -0.629910 85 50 6
-0.111726 -0.339572 -0.629085 97 59 21
-0.110280 -0.339669 -0.629204 97 59 21
-0.108705 -0.339459 -0.628378 84 42 10
-0.107261 -0.339556 -0.628497 101 59 27
-0.105816 -0.339653 -0.628617 85 47 11
-0.104372 -0.339750 -0.628736 98 60 24
-0.102805 -0.339539 -0.627909 99 58 21
-0.101363 -0.339636 -0.628028 90 49 12
-0.099920 -0.339733 -0.628148 86 44 2
-0.098360 -0.339522 -0.627320 93 51 9
-0.096919 -0.339619 -0.627439 116 76 20
-0.095478 -0.339715 -0.627559 115 75 19
-0.094037 -0.339812 -0.627678 120 73 33
-0.092596 -0.339909 -0.627797 61 14 0
-0.091156 -0.340005 -0.627916 71 15 3
-0.089606 -0.339794 -0.627088 72 16 4
-0.088167 -0.339890 -0.627207 74 15 6
-0.086728 -0.339987 -0.627326 74 15 6
-0.085289 -0.340083 -0.627445 74 13 5
-0.083850 -0.340180 -0.627564 74 13 5
-0.082310 -0.339967 -0.626734 74 13 5
-0.080774 -0.339755 -0.625905 74 13 5
-0.079339 -0.339851 -0.626024 74 13 5
-0.077807 -0.339639 -0.625194 74 13 5
-0.076373 -0.339735 -0.625312 73 14 5
-0.074847 -0.339522 -0.624482 73 14 5
-0.073414 -0.339618 -0.624601 73 14 5
-0.071982 -0.339714 -0.624719 73 14 5
-0.070549 -0.339810 -0.624838 72 13 4
-0.069116 -0.339906 -0.624956 72 13 4
-0.067684 -0.340002 -0.625074 68 11 2
-0.066169 -0.339788 -0.624243 70 13 4
-0.064738 -0.339884 -0.624362 68 14 6
-0.063307 -0.339980 -0.624480 68 14 6
-0.061876 -0.340076 -0.624598 68 14 6
-0.060445 -0.340172 -0.624717 66 12 4
-0.059014 -0.340268 -0.624835 67 15 6
-0.057583 -0.340364 -0.624953 67 15 6
-0.056152 -0.340460 -0.625071 62 13 3
-0.054721 -0.340556 -0.625190 62 13 3
-0.053290 -0.340652 -0.625308 60 12 4
-0.051859 -0.340748 -0.625426 60 12 4
-0.050428 -0.340844 -0.625545 60 12 4
-0.048997 -0.340940 -0.625663 60 12 4
-0.047566 -0.341036 -0.625781 60 12 4
-0.046135 -0.341132 -0.625900 60 12 4
-0.044704 -0.341228 -0.626018 60 12 4
-0.043274 -0.341324 -0.626136 60 12 4
-0.041843 -0.341420 -0.626255 58 12 4
-0.040464 -0.341827 -0.627325 59 13 5
-0.039032 -0.341924 -0.627444 59 13 5
-0.037648 -0.342332 -0.628514 59 13 5
-0.036262 -0.342740 -0.629585 61 13 5
-0.034826 -0.342836 -0.629704 62 14 6
-0.033390 -0.342933 -0.629823 65 15 8
-0.031954 -0.343029 -0.629942 66 16 9
-0.030518 -0.343125 -0.630060 70 18 9
-0.029082 -0.343222 -0.630179 71 19 10
-0.027646 -0.343318 -0.630298 79 21 9
-0.026210 -0.343414 -0.630417 80 22 10
-0.024775 -0.343510 -0.630535 81 23 9
-0.023339 -0.343607 -0.630654 80 22 8
-0.021903 -0.343703 -0.630773 79 21 7
-0.020467 -0.343799 -0.630891 77 19 5
-0.019031 -0.343896 -0.631010 74 18 6
-0.017595 -0.343992 -0.631129 74 18 6
-0.016159 -0.344088 -0.631248 70 16 6
-0.014723 -0.344184 -0.631366 69 15 5
-0.013287 -0.344281 -0.631485 66 17 5
-0.011852 -0.344377 -0.631604 66 17 5
-0.010416 -0.344473 -0.631723 66 17 7
-0.008980 -0.344570 -0.631841 67 18 8
-0.007544 -0.344666 -0.631960 69 17 8
-0.006108 -0.344762 -0.632079 69 17 8
-0.004672 -0.344858 -0.632197 70 16 8
-0.003246 -0.345269 -0.633272 71 17 9
-0.001809 -0.345366 -0.633391 73 16 9
-0.000371 -0.345462 -0.633510 74 17 10
0.001066 -0.345559 -0.633628 78 17 11
0.002504 -0.345655 -0.633747 78 17 11
0.003940 -0.346067 -0.634822 82 18 13
0.005379 -0.346479 -0.635898 82 18 13
0.006821 -0.346891 -0.636974 85 19 15
0.008267 -0.347303 -0.638050 86 20 16
0.009720 -0.348031 -0.640083 89 25 20
0.011180 -0.348760 -0.642116 93 29 24
0.012639 -0.349173 -0.643193 90 34 38
0.014111 -0.349903 -0.645228 96 40 44
-0.146548 -0.341541 -0.643984 77 32 35
-0.144738 -0.341034 -0.642219 74 29 32
-0.142935 -0.340528 -0.640454 89 24 22
-0.141302 -0.340323 -0.639632 85 20 18
-0.139673 -0.340118 -0.638810 86 17 14
-0.138207 -0.340217 -0.638931 86 17 14
-0.136583 -0.340012 -0.638108 87 15 11
-0.134962 -0.339807 -0.637285 88 16 12
-0.133344 -0.339601 -0.636462 87 15 11
-0.131883 -0.339699 -0.636582 87 15 11
-0.130270 -0.339493 -0.635759 87 16 9
-0.128660 -0.339288 -0.634935 87 16 9
-0.127203 -0.339385 -0.635055 87 16 7
-0.125746 -0.339483 -0.635176 88 17 8
-0.124143 -0.339277 -0.634351 87 20 5
-0.122543 -0.339070 -0.633526 83 16 1
-0.121089 -0.339168 -0.633647 127 79 31
-0.119635 -0.339265 -0.633767 122 74 26
-0.118042 -0.339058 -0.632942 117 76 25
-0.116452 -0.338851 -0.632116 79 38 0
-0.114865 -0.338643 -0.631290 109 69 25
-0.113416 -0.338740 -0.631410 83 43 0
-0.111834 -0.338533 -0.630584 92 51 12
-0.110386 -0.338630 -0.630703 100 59 20
-0.108809 -0.338422 -0.629877 73 32 0
-0.107364 -0.338518 -0.629996 107 66 27
-0.105918 -0.338615 -0.630116 83 45 5
-0.104472 -0.338712 -0.630235 98 60 20
-0.102903 -0.338504 -0.629408 98 58 16
-0.101459 -0.338601 -0.629527 99 59 17
-0.100015 -0.338697 -0.629647 109 69 25
-0.098453 -0.338488 -0.628819 109 69 25
-0.096894 -0.338279 -0.627991 120 81 34
-0.095453 -0.338376 -0.628110 117 78 31
-0.094012 -0.338472 -0.628229 112 63 37
-0.092572 -0.338569 -0.628348 63 14 0
-0.091131 -0.338665 -0.628467 69 15 5
-0.089582 -0.338455 -0.627638 70 16 6
-0.088143 -0.338552 -0.627757 74 15 8
-0.086703 -0.338648 -0.627876 73 14 7
-0.085264 -0.338745 -0.627995 73 14 7
-0.083825 -0.338841 -0.628114 73 14 7
-0.082286 -0.338631 -0.627284 73 14 7
-0.080750 -0.338420 -0.626454 72 13 6
-0.079314 -0.338516 -0.626573 72 13 6
-0.077783 -0.338305 -0.625742 72 13 6
-0.076348 -0.338401 -0.625861 70 13 6
-0.074822 -0.338190 -0.625030 70 13 6
-0.073390 -0.338286 -0.625149 70 13 6
-0.071957 -0.338382 -0.625267 70 13 6
-0.070524 -0.338478 -0.625385 70 13 6
-0.069092 -0.338574 -0.625504 68 11 4
-0.067659 -0.338670 -0.625622 66 12 4
-0.066144 -0.338458 -0.624791 66 12 4
-0.064714 -0.338554 -0.624909 65 13 4
-0.063283 -0.338650 -0.625027 65 13 4
-0.061852 -0.338746 -0.625146 65 13 4
-0.060421 -0.338841 -0.625264 65 13 4
-0.058990 -0.338937 -0.625382 65 13 4
-0.057559 -0.339033 -0.625500 65 13 4
-0.056128 -0.339129 -0.625619 62 13 3
-0.054697 -0.339225 -0.625737 62 13 3
-0.053266 -0.339321 -0.625855 60 12 4
-0.051835 -0.339417 -0.625974 60 12 4
-0.050404 -0.339513 -0.626092 60 12 4
-0.048973 -0.339609 -0.626210 60 12 4
-0.047542 -0.339705 -0.626329 61 13 5
-0.046111 -0.339801 -0.626447 60 12 4
-0.044680 -0.339897 -0.626565 61 13 5
-0.043249 -0.339993 -0.626684 61 13 5
-0.041818 -0.340089 -0.626802 61 13 5
-0.040440 -0.340495 -0.627873 61 13 5
-0.039007 -0.340591 -0.627992 61 13 5
-0.037624 -0.340998 -0.629063 61 13 5
-0.036237 -0.341405 -0.630135 62 14 6
-0.034801 -0.341501 -0.630253 62 14 6
-0.033410 -0.341908 -0.631326 65 16 6
-0.031972 -0.342005 -0.631444 66 17 7
-0.030535 -0.342101 -0.631563 70 18 9
-0.029097 -0.342198 -0.631682 70 18 9
-0.027659 -0.342294 -0.631801 74 17 8
-0.026222 -0.342390 -0.631920 75 18 9
-0.024784 -0.342487 -0.632039 75 19 7
-0.023347 -0.342583 -0.632158 74 18 6
-0.021909 -0.342680 -0.632276 74 18 6
-0.020472 -0.342776 -0.632395 73 17 5
-0.019034 -0.342872 -0.632514 73 17 5
-0.017597 -0.342969 -0.632633 73 17 5
-0.016159 -0.343065 -0.632752 72 15 6
-0.014722 -0.343162 -0.632871 71 14 5
-0.013284 -0.343258 -0.632990 70 16 6
-0.011847 -0.343354 -0.633108 70 16 6
-0.010409 -0.343451 -0.633227 70 16 6
-0.008972 -0.343547 -0.633346 71 17 7
-0.007534 -0.343644 -0.633465 73 16 7
-0.006097 -0.343740 -0.633584 73 16 7
-0.004659 -0.343836 -0.633703 75 16 7
-0.003231 -0.344246 -0.634778 75 16 7
-0.001792 -0.344342 -0.634897 77 16 8
-0.000353 -0.344439 -0.635016 77 16 8
0.001086 -0.344535 -0.635135 82 18 11
0.002522 -0.344946 -0.636211 82 18 11
0.003961 -0.345356 -0.637287 83 17 11
0.005403 -0.345767 -0.638363 83 17 11
0.006849 -0.346177 -0.639440 85 19 13
0.008298 -0.346589 -0.640517 86 20 14
0.009755 -0.347314 -0.642551 89 25 20
0.011218 -0.348040 -0.644586 92 28 23
0.012680 -0.348452 -0.645664 91 32 35
0.014155 -0.349179 -0.647701 98 39 42
-0.146354 -0.339868 -0.643604 88 45 47
-0.144713 -0.339666 -0.642782 71 28 30
-0.142910 -0.339162 -0.641016 89 24 22
-0.141277 -0.338959 -0.640193 85 20 18
-0.139648 -0.338756 -0.639370 86 17 14
-0.138182 -0.338854 -0.639491 86 17 14
-0.136558 -0.338651 -0.638668 87 15 11
-0.134937 -0.338447 -0.637844 88 16 12
-0.133319 -0.338243 -0.637020 87 15 11
-0.131858 -0.338341 -0.637141 87 15 11
-0.130398 -0.338439 -0.637262 87 16 9
-0.128786 -0.338235 -0.636437 87 16 9
-0.127327 -0.338333 -0.636558 87 16 9
-0.125721 -0.338128 -0.635733 87 16 9
-0.124264 -0.338226 -0.635854 89 18 7
-0.122662 -0.338021 -0.635028 83 12 1
-0.121207 -0.338118 -0.635149 134 86 40
-0.119751 -0.338216 -0.635269 122 74 28
-0.118156 -0.338011 -0.634443 115 75 21
-0.116564 -0.337805 -0.633617 96 56 2
-0.114976 -0.337599 -0.632791 101 62 11
-0.113525 -0.337696 -0.632911 100 61 10
-0.111942 -0.337490 -0.632084 100 61 14
-0.110493 -0.337587 -0.632204 104 65 18
-0.108914 -0.337381 -0.631377 112 72 28
-0.107467 -0.337478 -0.631496 109 69 25
-0.106019 -0.337575 -0.631616 109 68 29
-0.104572 -0.337672 -0.631736 106 65 26
-0.103002 -0.337465 -0.630908 104 63 26
-0.101556 -0.337562 -0.631027 85 44 7
-0.100110 -0.337659 -0.631147 88 45 10
-0.098546 -0.337451 -0.630318 81 38 3
-0.096986 -0.337244 -0.629490 72 28 0
-0.095543 -0.337340 -0.629609 65 21 0
-0.093988 -0.337132 -0.628780 75 24 8
-0.092547 -0.337229 -0.628899 68 17 1
-0.091106 -0.337326 -0.629018 68 14 4
-0.089557 -0.337117 -0.628189 69 15 5
-0.088118 -0.337214 -0.628308 69 15 7
-0.086679 -0.337310 -0.628427 68 14 6
-0.085239 -0.337407 -0.628546 70 13 6
-0.083800 -0.337503 -0.628665 70 13 6
-0.082261 -0.337294 -0.627834 70 13 6
-0.080725 -0.337085 -0.627003 70 13 6
-0.079289 -0.337181 -0.627122 68 11 4
-0.077758 -0.336971 -0.626291 68 11 4
-0.076324 -0.337067 -0.626410 68 11 4
-0.074798 -0.336857 -0.625578 68 11 4
-0.073365 -0.336953 -0.625697 66 12 4
-0.071932 -0.337050 -0.625815 66 12 4
-0.070500 -0.337146 -0.625933 66 12 4
-0.069067 -0.337242 -0.626052 66 12 4
-0.067635 -0.337338 -0.626170 64 12 3
-0.066120 -0.337127 -0.625338 65 13 4
-0.064689 -0.337223 -0.625456 65 13 4
-0.063258 -0.337319 -0.625575 65 13 4
-0.061827 -0.337415 -0.625693 65 13 4
-0.060396 -0.337511 -0.625811 65 13 4
-0.058965 -0.337607 -0.625929 65 13 4
-0.057534 -0.337703 -0.626048 65 13 4
-0.056103 -0.337799 -0.626166 64 12 3
-0.054672 -0.337895 -0.626284 64 12 3
-0.053241 -0.337991 -0.626403 61 13 5
-0.051810 -0.338087 -0.626521 60 12 4
-0.050379 -0.338183 -0.626639 61 13 5
-0.048948 -0.338279 -0.626758 61 13 5
-0.047517 -0.338374 -0.626876 61 13 5
-0.046086 -0.338470 -0.626994 61 13 5
-0.044655 -0.338566 -0.627113 62 12 5
-0.043224 -0.338662 -0.627231 62 12 5
-0.041793 -0.338758 -0.627349 62 12 5
-0.040415 -0.339163 -0.628421 63 13 6
-0.038982 -0.339259 -0.628539 63 13 6
-0.037599 -0.339664 -0.629612 63 13 6
-0.036212 -0.340070 -0.630684 67 14 8
-0.034776 -0.340166 -0.630803 67 14 8
-0.033385 -0.340572 -0.631875 69 15 7
-0.031947 -0.340668 -0.631994 69 15 7
-0.030510 -0.340764 -0.632113 72 15 6
-0.029072 -0.340861 -0.632232 73 16 7
-0.027635 -0.340957 -0.632351 74 17 8
-0.026197 -0.341054 -0.632470 73 16 7
-0.024760 -0.341150 -0.632589 74 17 8
-0.023322 -0.341246 -0.632707 73 16 7
-0.021885 -0.341343 -0.632826 73 16 7
-0.020447 -0.341439 -0.632945 73 16 7
-0.019010 -0.341536 -0.633064 73 16 7
-0.017572 -0.341632 -0.633183 73 16 7
-0.016134 -0.341728 -0.633302 72 15 6
-0.014697 -0.341825 -0.633421 72 15 6
-0.013259 -0.341921 -0.633539 72 15 6
-0.011822 -0.342018 -0.633658 73 16 7
-0.010384 -0.342114 -0.633777 75 16 7
-0.008947 -0.342210 -0.633896 75 16 7
-0.007524 -0.342618 -0.634971 76 15 7
-0.006085 -0.342715 -0.635090 76 15 7
-0.004646 -0.342811 -0.635209 76 15 7
-0.003217 -0.343219 -0.636285 77 16 8
-0.001776 -0.343316 -0.636404 80 14 8
-0.000335 -0.343413 -0.636524 80 14 8
0.001101 -0.343821 -0.637600 85 16 11
0.002540 -0.344230 -0.638677 85 16 11
0.003982 -0.344639 -0.639754 85 16 11
0.005428 -0.345049 -0.640831 85 16 11
0.006877 -0.345458 -0.641908 87 18 13
0.008329 -0.345868 -0.642986 88 19 14
0.009789 -0.346590 -0.645022 90 24 20
0.011256 -0.347314 -0.647059 93 27 23
0.012729 -0.348037 -0.649096 91 32 35
0.014209 -0.348761 -0.651134 96 37 40
-0.146160 -0.338198 -0.643223 99 59 60
-0.144520 -0.337997 -0.642401 69 29 30
-0.142884 -0.337796 -0.641578 87 22 20
-0.141252 -0.337595 -0.640754 85 20 18
-0.139622 -0.337393 -0.639931 86 17 14
-0.138157 -0.337491 -0.640052 86 17 14
-0.136533 -0.337290 -0.639228 88 16 12
-0.134911 -0.337087 -0.638403 87 15 11
-0.133293 -0.336885 -0.637579 87 15 11
-0.131833 -0.336983 -0.637700 87 15 11
-0.130372 -0.337081 -0.637820 87 16 9
-0.128912 -0.337179 -0.637941 87 16 9
-0.127302 -0.336976 -0.637116 87 16 9
-0.125696 -0.336773 -0.636290 87 16 9
-0.124239 -0.336871 -0.636411 88 17 6
-0.122637 -0.336667 -0.635585 85 14 3
-0.121182 -0.336765 -0.635705 127 71 32
-0.119726 -0.336862 -0.635826 130 74 35
-0.118131 -0.336659 -0.634999 122 77 25
-0.116677 -0.336756 -0.635120 118 73 21
-0.115087 -0.336552 -0.634293 111 70 21
-0.113635 -0.336649 -0.634413 114 73 24
-0.112050 -0.336445 -0.633585 101 59 17
-0.110599 -0.336542 -0.633705 94 52 10
-0.109019 -0.336337 -0.632878 81 36 2
-0.107570 -0.336434 -0.632998 80 35 1
-0.106121 -0.336531 -0.633117 76 30 3
-0.104672 -0.336629 -0.633237 69 23 0
-0.103100 -0.336423 -0.632409 70 23 0
-0.101652 -0.336520 -0.632529 70 23 0
-0.100205 -0.336617 -0.632648 70 23 1
-0.098640 -0.336411 -0.631819 72 25 3
-0.097077 -0.336205 -0.630990 70 22 3
-0.095633 -0.336302 -0.631110 69 21 2
-0.094076 -0.336096 -0.630280 69 21 6
-0.092634 -0.336193 -0.630399 66 18 3
-0.091081 -0.335986 -0.629569 63 14 2
-0.089532 -0.335779 -0.628739 65 16 4
-0.088093 -0.335875 -0.628858 67 15 6
-0.086654 -0.335972 -0.628977 67 15 6
-0.085215 -0.336068 -0.629096 65 13 4
-0.083775 -0.336165 -0.629215 65 13 4
-0.082236 -0.335957 -0.628384 66 12 4
-0.080700 -0.335749 -0.627553 66 12 4
-0.079264 -0.335846 -0.627671 66 12 4
-0.077733 -0.335638 -0.626840 66 12 4
-0.076299 -0.335734 -0.626958 66 12 4
-0.074773 -0.335525 -0.626126 66 12 4
-0.073340 -0.335621 -0.626245 66 12 4
-0.071908 -0.335717 -0.626363 66 12 4
-0.070475 -0.335813 -0.626481 66 12 4
-0.069042 -0.335910 -0.626600 66 12 4
-0.067610 -0.336006 -0.626718 64 12 3
-0.066095 -0.335796 -0.625885 65 13 4
-0.064664 -0.335892 -0.626004 64 12 3
-0.063233 -0.335988 -0.626122 65 13 4
-0.061802 -0.336084 -0.626240 65 13 4
-0.060371 -0.336180 -0.626359 64 12 3
-0.058940 -0.336276 -0.626477 65 13 4
-0.057509 -0.336372 -0.626595 65 13 4
-0.056078 -0.336468 -0.626713 64 12 3
-0.054647 -0.336564 -0.626832 64 12 3
-0.053216 -0.336660 -0.626950 62 13 3
-0.051785 -0.336756 -0.627068 62 13 3
-0.050355 -0.336852 -0.627187 62 12 5
-0.048924 -0.336948 -0.627305 63 13 6
-0.047493 -0.337044 -0.627423 63 13 6
-0.046062 -0.337140 -0.627542 63 13 6
-0.044631 -0.337236 -0.627660 65 12 6
-0.043200 -0.337332 -0.627778 65 12 6
-0.041769 -0.337428 -0.627897 66 11 6
-0.040390 -0.337831 -0.628969 66 11 6
-0.038958 -0.337927 -0.629087 66 11 6
-0.037574 -0.338331 -0.630160 68 13 8
-0.036188 -0.338734 -0.631233 68 13 8
-0.034798 -0.339138 -0.632306 69 14 9
-0.033360 -0.339235 -0.632425 71 14 7
-0.031923 -0.339331 -0.632544 71 14 7
-0.030485 -0.339428 -0.632663 74 15 6
-0.029048 -0.339524 -0.632782 75 16 7
-0.027610 -0.339620 -0.632901 75 16 7
-0.026209 -0.340025 -0.633975 75 16 7
-0.024769 -0.340122 -0.634094 75 16 7
-0.023330 -0.340218 -0.634213 75 16 7
-0.021891 -0.340315 -0.634332 75 16 7
-0.020452 -0.340411 -0.634451 75 16 7
-0.019013 -0.340508 -0.634570 75 16 7
-0.017574 -0.340604 -0.634689 75 16 7
-0.016134 -0.340701 -0.634808 74 15 6
-0.014695 -0.340797 -0.634927 75 16 7
-0.013256 -0.340894 -0.635046 75 16 7
-0.011817 -0.340990 -0.635165 75 16 7
-0.010378 -0.341087 -0.635284 76 15 7
-0.008939 -0.341183 -0.635403 76 15 7
-0.007514 -0.341590 -0.636479 79 15 8
-0.006073 -0.341686 -0.636598 78 14 7
-0.004633 -0.341783 -0.636717 79 15 8
-0.003202 -0.342190 -0.637794 80 16 9
-0.001759 -0.342287 -0.637913 81 15 9
-0.000323 -0.342694 -0.638990 81 15 9
0.001116 -0.343101 -0.640068 85 16 11
0.002558 -0.343509 -0.641145 85 16 11
0.004004 -0.343916 -0.642223 85 16 11
0.005453 -0.344324 -0.643301 85 16 11
0.006905 -0.344733 -0.644380 87 18 13
0.008360 -0.345141 -0.645458 88 19 14
0.009824 -0.345861 -0.647496 90 24 20
0.011294 -0.346581 -0.649534 93 27 23
0.012771 -0.347302 -0.651573 92 33 36
0.014254 -0.348023 -0.653612 94 35 38
-0.146134 -0.336829 -0.643786 104 68 68
-0.144495 -0.336630 -0.642963 66 30 30
-0.142859 -0.336430 -0.642139 85 23 20
-0.141227 -0.336231 -0.641315 83 21 18
-0.139597 -0.336031 -0.640491 88 16 14
-0.138132 -0.336129 -0.640612 88 16 14
-0.136507 -0.335928 -0.639788 88 16 12
-0.134886 -0.335728 -0.638963 87 15 11
-0.133268 -0.335527 -0.638138 87 15 11
-0.131808 -0.335625 -0.638258 87 15 11
-0.130347 -0.335723 -0.638379 87 16 9
-0.128887 -0.335821 -0.638500 87 16 9
-0.127426 -0.335919 -0.638621 87 16 9
-0.125818 -0.335717 -0.637795 87 16 9
-0.124359 -0.335815 -0.637915 88 17 8
-0.122756 -0.335613 -0.637089 88 17 8
-0.121299 -0.335711 -0.637209 101 38 13
-0.119842 -0.335809 -0.637330 109 46 21
-0.118245 -0.335607 -0.636503 90 35 0
-0.116790 -0.335704 -0.636623 86 31 0
-0.115198 -0.335502 -0.635796 77 27 0
-0.113744 -0.335599 -0.635916 76 26 0
-0.112157 -0.335396 -0.635088 70 20 0
-0.110705 -0.335494 -0.635208 76 26 3
-0.109123 -0.335290 -0.634380 72 25 3
-0.107673 -0.335388 -0.634500 72 25 3
-0.106222 -0.335485 -0.634620 72 24 7
-0.104771 -0.335582 -0.634740 70 22 5
-0.103198 -0.335378 -0.633911 69 21 4
-0.101749 -0.335476 -0.634031 69 21 4
-0.100300 -0.335573 -0.634151 68 20 3
-0.098733 -0.335368 -0.633321 68 20 3
-0.097169 -0.335164 -0.632492 68 20 5
-0.095723 -0.335261 -0.632611 68 20 5
