ply
format ascii 1.0
element vertex 1194
property float x
property float y
property float z
property uchar red
property uchar green
property uchar blue
end_header
-0.233309 -0.350274 -0.512126 114 25 20
-0.234261 -0.350338 -0.511902 114 25 20
-0.235214 -0.350403 -0.511677 114 25 20
-0.236167 -0.350467 -0.511453 114 25 22
-0.237099 -0.350018 -0.512124 114 25 22
-0.238050 -0.350082 -0.511900 113 24 21
-0.239001 -0.350147 -0.511676 114 25 22
-0.239952 -0.350211 -0.511452 115 26 23
-0.240903 -0.350276 -0.511228 114 25 22
-0.241854 -0.350340 -0.511003 116 24 22
-0.242805 -0.350405 -0.510779 116 24 22
-0.243725 -0.349954 -0.511454 116 24 22
-0.244707 -0.350534 -0.510331 116 24 22
-0.245624 -0.350083 -0.511006 116 24 22
-0.246573 -0.350147 -0.510782 116 24 22
-0.247523 -0.350211 -0.510559 115 26 23
-0.248472 -0.350276 -0.510335 114 25 22
-0.249421 -0.350340 -0.510111 115 26 23
-0.250371 -0.350405 -0.509887 116 27 24
-0.251320 -0.350469 -0.509664 115 28 24
-0.252270 -0.350533 -0.509440 115 28 24
-0.253219 -0.350598 -0.509216 113 29 24
-0.254217 -0.351178 -0.508090 114 30 25
-0.255168 -0.351243 -0.507865 113 29 24
-0.256119 -0.351307 -0.507641 113 29 24
-0.257070 -0.351371 -0.507417 112 29 24
-0.257966 -0.350919 -0.508097 113 30 25
-0.258915 -0.350984 -0.507873 113 30 27
-0.259806 -0.350531 -0.508555 112 29 26
-0.260754 -0.350595 -0.508331 113 30 27
-0.261702 -0.350660 -0.508108 112 29 26
-0.262650 -0.350724 -0.507885 112 29 26
-0.263597 -0.350788 -0.507661 112 29 26
-0.264545 -0.350852 -0.507438 110 30 26
-0.265425 -0.350399 -0.508122 111 31 27
-0.266371 -0.350463 -0.507899 111 31 27
-0.267318 -0.350527 -0.507676 111 31 27
-0.268264 -0.350592 -0.507453 109 32 27
-0.269210 -0.350656 -0.507230 109 32 27
-0.270080 -0.350202 -0.507916 107 32 26
-0.271025 -0.350266 -0.507693 107 32 26
-0.271969 -0.350330 -0.507471 108 35 36
-0.272914 -0.350394 -0.507248 112 39 40
-0.273859 -0.350458 -0.507025 105 53 58
-0.274803 -0.350522 -0.506803 103 51 56
-0.114283 -0.349057 -0.526257 84 57 51
-0.115260 -0.349123 -0.526027 108 41 44
-0.116237 -0.349189 -0.525797 107 40 43
-0.117213 -0.349255 -0.525567 111 38 36
-0.118190 -0.349321 -0.525337 110 37 35
-0.119166 -0.349388 -0.525107 110 37 33
-0.120143 -0.349454 -0.524876 110 37 33
-0.121120 -0.349520 -0.524646 113 38 32
-0.122265 -0.349086 -0.525268 114 39 33
-0.123240 -0.349152 -0.525039 114 37 32
-0.124215 -0.349218 -0.524809 114 37 32
-0.125355 -0.348784 -0.525432 114 37 32
-0.126328 -0.348850 -0.525203 114 37 32
-0.127302 -0.348916 -0.524974 116 36 32
-0.128435 -0.348481 -0.525599 116 36 32
-0.129406 -0.348547 -0.525370 119 36 31
-0.130378 -0.348613 -0.525141 120 37 32
-0.131505 -0.348178 -0.525767 114 38 24
-0.132475 -0.348244 -0.525539 162 86 72
-0.133597 -0.347808 -0.526166 162 103 67
-0.134566 -0.347874 -0.525938 161 102 66
-0.135534 -0.347940 -0.525710 159 104 60
-0.136650 -0.347504 -0.526339 156 101 57
-0.137617 -0.347569 -0.526111 156 96 54
-0.138584 -0.347635 -0.525883 150 90 48
-0.139693 -0.347199 -0.526514 156 89 49
-0.140658 -0.347264 -0.526287 159 92 52
-0.141623 -0.347329 -0.526059 159 89 52
-0.142589 -0.347395 -0.525831 149 79 42
-0.143554 -0.347460 -0.525604 147 76 42
-0.144654 -0.347023 -0.526237 156 85 51
-0.145617 -0.347089 -0.526010 161 91 54
-0.146581 -0.347154 -0.525783 163 93 56
-0.147545 -0.347219 -0.525555 156 89 51
-0.148509 -0.347285 -0.525328 153 86 48
-0.149472 -0.347350 -0.525101 152 75 48
-0.150561 -0.346912 -0.525737 146 69 42
-0.151523 -0.346977 -0.525510 129 42 27
-0.152485 -0.347043 -0.525283 120 33 18
-0.153447 -0.347108 -0.525057 124 29 26
-0.154409 -0.347173 -0.524830 125 30 27
-0.155372 -0.347238 -0.524603 125 30 27
-0.156449 -0.346800 -0.525241 126 31 28
-0.157409 -0.346865 -0.525015 125 30 27
-0.158370 -0.346930 -0.524789 124 29 26
-0.159330 -0.346995 -0.524562 125 30 27
-0.160399 -0.346556 -0.525202 125 30 27
-0.161358 -0.346621 -0.524976 120 29 22
-0.162317 -0.346686 -0.524750 122 31 24
-0.163276 -0.346751 -0.524524 124 42 25
-0.164235 -0.346816 -0.524298 144 62 45
-0.165194 -0.346881 -0.524072 149 75 47
-0.166153 -0.346946 -0.523846 162 88 60
-0.167015 -0.347516 -0.522751 155 88 48
-0.167976 -0.347581 -0.522524 148 81 41
-0.169030 -0.347141 -0.523168 148 72 40
-0.169897 -0.347711 -0.522072 144 68 36
-0.170857 -0.347776 -0.521845 130 43 30
-0.171818 -0.347842 -0.521619 123 36 23
-0.172778 -0.347907 -0.521392 120 28 24
-0.173739 -0.347972 -0.521166 120 28 24
-0.174700 -0.348037 -0.520940 124 29 28
-0.175660 -0.348102 -0.520713 124 29 28
-0.176621 -0.348167 -0.520487 125 30 31
-0.177581 -0.348232 -0.520260 124 29 30
-0.178542 -0.348297 -0.520034 125 30 29
-0.179579 -0.347856 -0.520682 124 29 28
-0.180538 -0.347921 -0.520456 124 29 28
-0.181497 -0.347986 -0.520230 125 30 29
-0.182456 -0.348051 -0.520004 126 31 30
-0.183415 -0.348116 -0.519778 127 32 31
-0.184374 -0.348181 -0.519552 127 32 31
-0.185400 -0.347739 -0.520202 127 32 31
-0.186357 -0.347804 -0.519976 128 33 32
-0.187314 -0.347869 -0.519751 128 33 32
-0.188334 -0.347427 -0.520403 128 33 32
-0.189289 -0.347491 -0.520177 127 32 31
-0.190245 -0.347556 -0.519952 128 33 32
-0.191201 -0.347621 -0.519727 128 33 32
-0.192157 -0.347686 -0.519502 128 33 32
-0.193113 -0.347750 -0.519276 127 32 31
-0.194068 -0.347815 -0.519051 129 33 30
-0.195024 -0.347880 -0.518826 128 32 29
-0.196029 -0.347437 -0.519481 127 31 28
-0.196936 -0.348010 -0.518375 128 32 29
-0.197891 -0.348074 -0.518150 128 32 29
-0.198847 -0.348139 -0.517925 127 31 28
-0.199803 -0.348204 -0.517699 130 32 27
-0.200800 -0.347760 -0.518357 130 32 27
-0.201754 -0.347825 -0.518132 130 32 27
-0.202708 -0.347889 -0.517907 130 32 27
-0.203663 -0.347954 -0.517682 130 32 27
-0.204617 -0.348019 -0.517457 131 33 28
-0.205571 -0.348083 -0.517232 130 32 27
-0.206525 -0.348148 -0.517007 129 31 26
-0.207479 -0.348213 -0.516782 130 32 27
-0.208433 -0.348277 -0.516557 129 31 26
-0.209388 -0.348342 -0.516333 129 31 26
-0.210342 -0.348407 -0.516108 129 31 26
-0.211296 -0.348471 -0.515883 126 31 25
-0.212250 -0.348536 -0.515658 126 31 25
-0.213225 -0.348091 -0.516320 125 31 25
-0.214177 -0.348155 -0.516096 124 30 24
-0.215130 -0.348220 -0.515871 124 29 26
-0.216082 -0.348284 -0.515647 127 32 29
-0.217035 -0.348349 -0.515422 129 37 33
-0.217988 -0.348414 -0.515198 129 37 33
-0.218940 -0.348478 -0.514973 126 34 30
-0.219884 -0.349053 -0.513859 124 32 28
-0.220838 -0.349118 -0.513634 124 32 28
-0.221792 -0.349183 -0.513409 124 32 28
-0.222746 -0.349248 -0.513184 124 32 28
-0.223700 -0.349312 -0.512959 122 30 26
-0.224654 -0.349377 -0.512734 120 28 26
-0.225609 -0.349442 -0.512509 120 28 26
-0.226563 -0.349506 -0.512284 120 28 26
-0.227517 -0.349571 -0.512060 122 30 28
-0.228471 -0.349636 -0.511835 122 33 28
-0.229425 -0.349700 -0.511610 125 36 31
-0.230379 -0.349765 -0.511385 126 39 33
-0.231334 -0.349830 -0.511160 121 34 28
-0.232288 -0.349894 -0.510935 117 30 24
-0.233229 -0.349447 -0.511605 115 28 22
-0.234181 -0.349511 -0.511381 117 30 26
-0.235134 -0.349576 -0.511156 116 29 25
-0.236086 -0.349640 -0.510932 116 27 24
-0.237039 -0.349705 -0.510707 116 27 24
-0.237992 -0.349769 -0.510483 115 26 23
-0.238944 -0.349834 -0.510258 115 26 23
-0.239897 -0.349898 -0.510034 115 26 23
-0.240849 -0.349963 -0.509809 115 26 23
-0.241774 -0.349514 -0.510484 114 25 22
-0.242725 -0.349579 -0.510259 114 25 22
-0.243676 -0.349643 -0.510035 114 25 22
-0.244627 -0.349708 -0.509811 114 25 22
-0.245578 -0.349772 -0.509587 114 25 22
-0.246529 -0.349837 -0.509363 113 24 21
-0.247443 -0.349387 -0.510040 114 27 23
-0.248392 -0.349451 -0.509816 114 27 23
-0.249342 -0.349516 -0.509592 113 26 22
-0.250291 -0.349580 -0.509368 115 28 24
-0.251240 -0.349644 -0.509145 112 28 23
-0.252190 -0.349709 -0.508921 112 28 23
-0.253139 -0.349773 -0.508697 113 29 24
-0.254185 -0.350867 -0.506666 114 30 25
-0.255138 -0.350932 -0.506442 112 29 24
-0.256039 -0.350481 -0.507121 112 29 24
-0.256990 -0.350546 -0.506897 112 29 24
-0.257886 -0.350095 -0.507578 113 30 25
-0.258835 -0.350159 -0.507355 113 30 27
-0.259785 -0.350224 -0.507131 112 29 26
-0.260734 -0.350288 -0.506907 113 30 27
-0.261683 -0.350352 -0.506683 112 29 26
-0.262633 -0.350417 -0.506459 110 30 26
-0.263518 -0.349965 -0.507143 110 30 26
-0.264465 -0.350029 -0.506920 110 30 26
-0.265413 -0.350094 -0.506696 111 31 27
-0.266361 -0.350158 -0.506473 111 31 27
-0.267309 -0.350222 -0.506250 111 31 27
-0.268257 -0.350286 -0.506026 109 32 27
-0.269204 -0.350350 -0.505803 109 32 27
-0.270152 -0.350415 -0.505579 107 32 26
-0.271100 -0.350479 -0.505356 108 33 27
-0.271969 -0.350026 -0.506043 106 36 36
-0.272915 -0.350091 -0.505820 111 41 41
-0.273861 -0.350155 -0.505597 104 54 58
-0.274807 -0.350219 -0.505374 104 54 58
-0.114019 -0.348706 -0.524873 85 60 53
-0.114997 -0.348773 -0.524643 108 41 42
-0.115975 -0.348839 -0.524412 107 40 41
-0.116954 -0.348905 -0.524182 111 38 36
-0.117932 -0.348971 -0.523951 110 37 35
-0.118910 -0.349038 -0.523721 111 38 34
-0.119888 -0.349104 -0.523490 110 37 33
-0.120866 -0.349170 -0.523260 113 38 32
-0.122014 -0.348738 -0.523882 113 38 32
-0.123158 -0.348306 -0.524506 113 36 31
-0.124133 -0.348372 -0.524276 114 37 32
-0.125108 -0.348438 -0.524046 114 37 32
-0.126083 -0.348504 -0.523816 114 37 32
-0.127058 -0.348570 -0.523586 114 37 32
-0.128193 -0.348137 -0.524212 114 37 32
-0.129167 -0.348203 -0.523983 117 37 33
-0.130140 -0.348269 -0.523753 118 38 34
-0.131268 -0.347835 -0.524380 118 39 28
-0.132240 -0.347901 -0.524151 145 66 55
-0.133364 -0.347467 -0.524780 151 83 55
-0.134334 -0.347533 -0.524551 162 94 66
-0.135453 -0.347098 -0.525180 160 102 59
-0.136421 -0.347164 -0.524952 158 100 57
-0.137390 -0.347230 -0.524724 154 96 53
-0.138358 -0.347295 -0.524495 150 92 49
-0.139469 -0.346861 -0.525127 156 90 50
-0.140436 -0.346926 -0.524899 158 92 52
-0.141403 -0.346992 -0.524671 157 90 50
-0.142370 -0.347057 -0.524443 153 86 46
-0.143337 -0.347123 -0.524215 154 87 47
-0.144438 -0.346687 -0.524849 156 89 49
-0.145404 -0.346753 -0.524621 159 89 50
-0.146369 -0.346818 -0.524394 157 87 48
-0.147334 -0.346884 -0.524166 156 86 49
-0.148300 -0.346949 -0.523939 151 81 44
-0.149391 -0.346513 -0.524574 149 69 45
-0.150355 -0.346578 -0.524347 146 66 42
-0.151319 -0.346644 -0.524120 131 44 31
-0.152283 -0.346709 -0.523893 121 34 21
-0.153366 -0.346272 -0.524531 124 29 26
-0.154328 -0.346338 -0.524304 125 30 27
-0.155291 -0.346403 -0.524077 125 30 29
-0.156253 -0.346468 -0.523850 125 30 29
-0.157215 -0.346533 -0.523623 124 29 26
-0.158289 -0.346096 -0.524263 124 29 26
-0.159249 -0.346161 -0.524037 122 31 24
-0.160210 -0.346226 -0.523811 123 32 25
-0.161171 -0.346291 -0.523584 143 69 45
-0.162131 -0.346356 -0.523358 158 84 60
-0.163092 -0.346421 -0.523131 154 85 55
-0.164052 -0.346487 -0.522905 153 84 54
-0.165013 -0.346552 -0.522679 153 85 50
-0.165974 -0.346617 -0.522452 156 88 53
-0.166934 -0.346682 -0.522226 156 89 47
-0.167895 -0.346747 -0.521999 150 83 41
-0.168855 -0.346812 -0.521773 150 75 40
-0.169816 -0.346877 -0.521547 141 66 31
-0.170776 -0.346942 -0.521320 131 46 32
-0.171737 -0.347007 -0.521094 123 38 24
-0.172698 -0.347072 -0.520867 120 28 26
-0.173658 -0.347138 -0.520641 120 28 26
-0.174619 -0.347203 -0.520415 122 27 28
-0.175579 -0.347268 -0.520188 124 29 30
-0.176540 -0.347333 -0.519962 124 29 28
-0.177500 -0.347398 -0.519735 124 29 28
-0.178461 -0.347463 -0.519509 124 29 28
-0.179422 -0.347528 -0.519283 124 29 28
-0.180382 -0.347593 -0.519056 124 29 28
-0.181416 -0.347153 -0.519706 124 29 28
-0.182375 -0.347218 -0.519479 126 31 30
-0.183334 -0.347283 -0.519253 126 31 30
-0.184293 -0.347348 -0.519027 126 31 30
-0.185252 -0.347413 -0.518801 126 31 30
-0.186211 -0.347478 -0.518575 127 32 31
-0.187170 -0.347543 -0.518349 128 33 32
-0.188191 -0.347102 -0.519002 127 32 31
-0.189149 -0.347167 -0.518776 126 31 30
-0.190106 -0.347232 -0.518550 128 33 32
-0.191063 -0.347297 -0.518325 128 33 32
-0.192021 -0.347362 -0.518099 127 32 29
-0.192978 -0.347427 -0.517874 127 32 29
-0.193935 -0.347492 -0.517648 129 33 30
-0.194893 -0.347557 -0.517422 128 32 29
-0.195899 -0.347115 -0.518078 127 31 28
-0.196855 -0.347180 -0.517853 128 32 29
-0.197811 -0.347244 -0.517628 128 32 29
-0.198767 -0.347309 -0.517402 127 31 28
-0.199723 -0.347374 -0.517177 130 32 27
-0.200678 -0.347439 -0.516952 130 32 27
-0.201634 -0.347503 -0.516726 130 32 27
-0.202590 -0.347568 -0.516501 130 32 27
-0.203546 -0.347633 -0.516276 130 32 27
-0.204501 -0.347698 -0.516051 131 33 28
-0.205457 -0.347763 -0.515825 130 32 27
-0.206413 -0.347827 -0.515600 128 30 25
-0.207369 -0.347892 -0.515375 130 32 27
-0.208325 -0.347957 -0.515150 129 31 26
-0.209280 -0.348022 -0.514924 129 31 26
-0.210236 -0.348086 -0.514699 129 31 26
-0.211192 -0.348151 -0.514474 126 30 27
-0.212148 -0.348216 -0.514248 126 30 27
-0.213124 -0.347772 -0.514911 125 30 27
-0.214078 -0.347837 -0.514687 124 29 26
-0.215032 -0.347901 -0.514462 124 32 28
-0.215987 -0.347966 -0.514237 129 37 33
-0.216941 -0.348031 -0.514012 131 40 33
-0.217895 -0.348095 -0.513787 130 39 32
-0.218849 -0.348160 -0.513562 127 35 31
-0.219794 -0.348734 -0.512446 125 33 29
-0.220750 -0.348799 -0.512221 124 32 28
-0.221705 -0.348864 -0.511996 125 33 29
-0.222661 -0.348929 -0.511770 125 33 29
-0.223617 -0.348993 -0.511545 124 32 28
-0.224573 -0.349058 -0.511320 124 32 30
-0.225529 -0.349123 -0.511095 125 33 31
-0.226484 -0.349188 -0.510869 123 31 29
-0.227440 -0.349253 -0.510644 124 32 30
-0.228396 -0.349317 -0.510419 122 33 28
-0.229352 -0.349382 -0.510193 127 38 33
-0.230307 -0.349447 -0.509968 126 42 35
-0.231263 -0.349512 -0.509743 120 36 29
-0.232208 -0.349066 -0.510413 120 31 28
-0.233162 -0.349130 -0.510189 118 29 26
-0.234116 -0.349195 -0.509964 121 32 29
-0.235070 -0.349260 -0.509739 120 31 28
-0.236024 -0.349324 -0.509514 120 31 28
-0.236978 -0.349389 -0.509289 118 29 26
-0.237933 -0.349454 -0.509064 120 31 26
-0.238887 -0.349518 -0.508839 120 31 26
-0.239841 -0.349583 -0.508614 118 29 24
-0.240795 -0.349648 -0.508389 116 27 22
-0.241722 -0.349200 -0.509064 116 27 24
-0.242674 -0.349265 -0.508840 117 28 25
-0.243627 -0.349329 -0.508615 116 27 24
-0.244579 -0.349394 -0.508391 116 27 24
-0.245532 -0.349459 -0.508166 114 27 23
-0.246485 -0.349523 -0.507942 113 26 22
-0.247437 -0.349588 -0.507717 114 27 23
-0.248351 -0.349140 -0.508395 114 27 23
-0.249302 -0.349204 -0.508171 112 28 23
-0.250253 -0.349268 -0.507946 113 29 24
-0.251247 -0.349846 -0.506819 112 28 25
-0.252200 -0.349911 -0.506594 112 28 25
-0.253153 -0.349975 -0.506370 112 28 25
-0.254009 -0.349013 -0.507954 113 29 26
-0.254958 -0.349077 -0.507731 112 29 26
-0.256010 -0.350169 -0.505696 112 29 26
-0.256963 -0.350233 -0.505472 112 29 26
-0.257861 -0.349784 -0.506153 113 30 27
-0.258812 -0.349849 -0.505929 112 29 26
-0.259763 -0.349913 -0.505705 112 29 26
-0.260714 -0.349978 -0.505481 110 30 26
-0.261604 -0.349528 -0.506164 110 30 26
-0.262553 -0.349592 -0.505941 110 30 26
-0.263502 -0.349656 -0.505717 110 30 26
-0.264452 -0.349721 -0.505493 110 30 26
-0.265334 -0.349270 -0.506178 111 31 27
-0.266281 -0.349335 -0.505955 109 32 27
-0.267229 -0.349399 -0.505731 109 32 27
-0.268177 -0.349463 -0.505508 108 33 27
-0.269125 -0.349527 -0.505285 108 33 27
-0.270072 -0.349592 -0.505061 108 32 29
-0.271020 -0.349656 -0.504838 109 33 30
-0.271968 -0.349720 -0.504615 107 37 39
-0.272916 -0.349784 -0.504391 113 43 45
-0.273863 -0.349849 -0.504168 102 54 58
-0.274811 -0.349913 -0.503944 109 61 65
-0.113937 -0.347857 -0.524339 87 62 55
-0.114915 -0.347923 -0.524108 107 42 42
-0.115893 -0.347989 -0.523878 107 42 42
-0.116871 -0.348056 -0.523647 111 38 36
-0.117850 -0.348122 -0.523417 111 38 36
-0.118828 -0.348188 -0.523186 111 38 34
-0.119806 -0.348255 -0.522955 110 37 33
-0.120784 -0.348321 -0.522725 113 38 32
-0.121932 -0.347890 -0.523348 113 38 32
-0.122908 -0.347956 -0.523118 113 36 31
-0.123885 -0.348022 -0.522888 113 36 31
-0.125026 -0.347591 -0.523513 114 37 32
-0.126001 -0.347657 -0.523283 115 38 33
-0.126976 -0.347723 -0.523053 114 37 32
-0.127951 -0.347789 -0.522824 114 37 32
-0.128926 -0.347855 -0.522594 117 37 33
-0.130058 -0.347423 -0.523221 118 38 34
-0.131187 -0.346991 -0.523849 124 41 34
-0.132158 -0.347057 -0.523620 131 48 41
-0.133282 -0.346624 -0.524249 136 61 40
-0.134252 -0.346690 -0.524021 149 74 53
-0.135222 -0.346756 -0.523792 158 94 58
-0.136193 -0.346822 -0.523563 161 97 61
-0.137163 -0.346887 -0.523335 157 99 56
-0.138133 -0.346953 -0.523106 155 97 54
-0.139245 -0.346520 -0.523738 158 95 54
-0.140214 -0.346586 -0.523509 156 93 52
-0.141183 -0.346651 -0.523281 156 89 49
-0.142151 -0.346717 -0.523053 153 86 46
-0.143120 -0.346783 -0.522825 155 88 48
-0.144223 -0.346349 -0.523459 155 88 48
-0.145190 -0.346414 -0.523231 156 86 47
-0.146157 -0.346480 -0.523003 152 82 43
-0.147253 -0.346045 -0.523638 152 79 48
-0.148219 -0.346111 -0.523411 144 71 40
-0.149184 -0.346176 -0.523183 142 60 41
-0.150274 -0.345741 -0.523820 134 52 33
-0.151238 -0.345807 -0.523593 129 41 33
-0.152202 -0.345872 -0.523366 120 32 24
-0.153165 -0.345937 -0.523139 123 31 29
-0.154129 -0.346003 -0.522912 123 31 29
-0.155093 -0.346068 -0.522685 123 31 29
-0.156057 -0.346133 -0.522457 123 31 29
-0.157020 -0.346199 -0.522230 123 31 29
-0.158096 -0.345763 -0.522871 123 31 29
-0.159058 -0.345828 -0.522644 113 31 19
-0.160021 -0.345893 -0.522417 177 95 83
-0.160983 -0.345958 -0.522190 162 101 66
-0.161945 -0.346024 -0.521964 152 91 56
-0.162907 -0.346089 -0.521737 153 86 51
-0.163972 -0.345652 -0.522380 149 82 47
-0.164932 -0.345717 -0.522154 149 81 48
-0.165893 -0.345783 -0.521927 156 88 55
-0.166853 -0.345848 -0.521701 157 90 48
-0.167814 -0.345913 -0.521474 152 85 43
-0.168774 -0.345978 -0.521248 151 76 39
-0.169642 -0.346545 -0.520149 143 68 31
-0.170605 -0.346611 -0.519923 135 50 36
-0.171567 -0.346676 -0.519696 124 39 25
-0.172529 -0.346741 -0.519469 122 30 28
-0.173491 -0.346806 -0.519242 120 28 26
-0.174453 -0.346871 -0.519015 124 29 30
-0.175415 -0.346937 -0.518789 124 29 30
-0.176378 -0.347002 -0.518562 124 29 28
-0.177340 -0.347067 -0.518335 124 29 28
-0.178302 -0.347132 -0.518108 125 30 29
-0.179264 -0.347197 -0.517881 124 29 28
-0.180226 -0.347263 -0.517655 124 29 28
-0.181262 -0.346824 -0.518305 124 29 28
-0.182223 -0.346889 -0.518078 126 31 30
-0.183183 -0.346954 -0.517852 126 31 30
-0.184144 -0.347020 -0.517625 126 31 30
-0.185104 -0.347085 -0.517399 126 31 30
-0.186065 -0.347150 -0.517173 127 32 31
-0.187025 -0.347215 -0.516946 127 32 31
-0.188048 -0.346775 -0.517599 127 32 29
-0.189007 -0.346840 -0.517373 126 31 28
-0.189966 -0.346905 -0.517147 128 33 30
-0.190925 -0.346970 -0.516921 128 33 30
-0.191940 -0.346531 -0.517576 128 32 29
-0.192897 -0.346595 -0.517350 128 32 29
-0.193855 -0.346660 -0.517125 128 32 29
-0.194761 -0.347230 -0.516017 128 32 29
-0.195770 -0.346790 -0.516673 127 31 28
-0.196727 -0.346855 -0.516448 128 32 29
-0.197684 -0.346920 -0.516222 130 32 27
-0.198642 -0.346985 -0.515996 129 31 26
-0.199642 -0.346544 -0.516655 130 32 27
-0.200598 -0.346609 -0.516429 130 32 27
-0.201554 -0.346673 -0.516204 130 32 27
-0.202510 -0.346738 -0.515979 130 32 27
-0.203465 -0.346803 -0.515753 131 33 28
-0.204421 -0.346868 -0.515528 131 33 28
-0.205377 -0.346933 -0.515303 130 32 27
-0.206333 -0.346997 -0.515078 128 30 25
-0.207288 -0.347062 -0.514852 130 32 27
-0.208244 -0.347127 -0.514627 129 31 26
-0.209200 -0.347192 -0.514402 128 30 25
-0.210156 -0.347256 -0.514177 128 30 25
-0.211111 -0.347321 -0.513951 125 29 26
-0.212067 -0.347386 -0.513726 126 30 27
-0.213023 -0.347451 -0.513501 125 30 27
-0.213998 -0.347008 -0.514165 124 29 26
-0.214952 -0.347073 -0.513940 127 38 33
-0.215906 -0.347138 -0.513715 130 41 36
-0.216860 -0.347202 -0.513490 130 42 34
-0.217802 -0.347775 -0.512374 128 40 32
-0.218758 -0.347839 -0.512149 129 38 31
-0.219713 -0.347904 -0.511924 126 35 28
-0.220669 -0.347969 -0.511698 125 33 29
-0.221625 -0.348034 -0.511473 127 35 31
-0.222581 -0.348099 -0.511248 127 35 31
-0.223537 -0.348163 -0.511023 126 34 30
-0.224492 -0.348228 -0.510797 127 35 31
-0.225448 -0.348293 -0.510572 127 35 31
-0.226404 -0.348358 -0.510347 123 34 31
-0.227360 -0.348422 -0.510122 123 34 31
-0.228315 -0.348487 -0.509896 124 35 30
-0.229271 -0.348552 -0.509671 125 36 31
-0.230227 -0.348617 -0.509446 127 40 34
-0.231183 -0.348682 -0.509220 123 36 30
-0.232139 -0.348746 -0.508995 122 33 30
-0.233094 -0.348811 -0.508770 120 31 28
-0.234050 -0.348876 -0.508545 122 33 30
-0.235006 -0.348941 -0.508319 121 32 29
-0.235962 -0.349006 -0.508094 121 32 29
-0.236917 -0.349070 -0.507869 121 32 29
-0.237873 -0.349135 -0.507644 123 34 29
-0.238829 -0.349200 -0.507418 122 33 28
-0.239785 -0.349265 -0.507193 121 32 27
-0.240741 -0.349329 -0.506968 120 31 26
-0.241669 -0.348884 -0.507643 120 31 28
-0.242623 -0.348948 -0.507418 120 31 28
-0.243577 -0.349013 -0.507193 120 31 28
-0.244531 -0.349078 -0.506968 120 31 28
-0.245486 -0.349142 -0.506743 117 30 26
-0.246440 -0.349207 -0.506518 116 29 25
-0.247394 -0.349272 -0.506294 115 28 24
-0.248348 -0.349336 -0.506069 116 29 25
-0.249262 -0.348890 -0.506747 114 30 25
-0.250257 -0.349466 -0.505619 114 30 25
-0.251211 -0.349530 -0.505394 114 30 25
-0.252165 -0.349595 -0.505169 114 30 25
-0.253026 -0.348636 -0.506754 113 29 26
-0.253977 -0.348700 -0.506530 114 30 27
-0.254928 -0.348765 -0.506306 113 30 27
-0.255982 -0.349854 -0.504269 112 29 26
-0.256936 -0.349918 -0.504045 112 29 26
-0.257835 -0.349471 -0.504727 113 30 27
-0.258788 -0.349535 -0.504502 112 29 26
-0.259741 -0.349600 -0.504278 112 29 26
-0.260693 -0.349664 -0.504053 110 30 26
-0.261585 -0.349216 -0.504737 110 30 26
-0.262536 -0.349281 -0.504513 110 30 26
-0.263487 -0.349345 -0.504289 110 30 26
-0.264438 -0.349409 -0.504064 108 31 26
-0.265321 -0.348961 -0.504750 109 32 27
-0.266271 -0.349025 -0.504526 109 31 29
-0.267220 -0.349089 -0.504303 109 31 29
-0.268169 -0.349154 -0.504079 108 32 29
-0.269119 -0.349218 -0.503855 108 32 29
-0.270068 -0.349282 -0.503631 106 33 29
-0.271017 -0.349347 -0.503408 109 36 32
-0.271967 -0.349411 -0.503184 107 37 37
-0.272916 -0.349475 -0.502960 113 43 43
-0.273866 -0.349540 -0.502736 103 58 61
-0.113854 -0.347007 -0.523804 91 65 61
-0.114833 -0.347074 -0.523573 107 42 44
-0.115811 -0.347140 -0.523343 106 41 43
-0.116789 -0.347206 -0.523112 111 38 34
-0.117767 -0.347272 -0.522882 111 38 34
-0.118745 -0.347339 -0.522651 113 37 34
-0.119724 -0.347405 -0.522421 112 36 33
-0.120702 -0.347471 -0.522190 113 38 32
-0.121680 -0.347538 -0.521960 113 38 32
-0.122826 -0.347108 -0.522584 114 37 32
-0.123803 -0.347174 -0.522354 114 37 32
-0.124779 -0.347240 -0.522124 114 37 32
-0.125756 -0.347307 -0.521894 115 38 33
-0.126733 -0.347373 -0.521664 114 37 32
-0.127869 -0.346943 -0.522291 114 37 32
-0.128844 -0.347009 -0.522061 117 37 33
-0.129819 -0.347075 -0.521831 117 37 33
-0.130949 -0.346644 -0.522460 120 37 32
-0.131923 -0.346710 -0.522230 124 41 36
-0.133048 -0.346279 -0.522860 125 46 33
-0.134020 -0.346345 -0.522631 134 55 42
-0.134992 -0.346411 -0.522402 140 71 45
-0.135964 -0.346476 -0.522173 159 90 64
-0.137081 -0.346045 -0.522804 160 101 63
-0.138051 -0.346111 -0.522576 160 101 63
-0.139021 -0.346176 -0.522347 157 97 57
-0.139992 -0.346242 -0.522118 156 96 56
-0.140962 -0.346308 -0.521890 155 89 51
-0.142070 -0.345876 -0.522523 152 86 48
-0.143038 -0.345941 -0.522295 156 86 49
-0.144007 -0.346007 -0.522067 154 84 47
-0.145108 -0.345574 -0.522702 152 80 44
-0.146075 -0.345640 -0.522474 146 74 38
-0.147172 -0.345207 -0.523111 145 68 45
-0.148137 -0.345272 -0.522883 138 61 38
-0.149103 -0.345338 -0.522656 131 49 37
-0.150068 -0.345403 -0.522428 126 44 32
-0.151033 -0.345469 -0.522200 124 40 35
-0.151999 -0.345534 -0.521973 118 34 29
-0.153084 -0.345100 -0.522612 118 34 31
-0.154048 -0.345166 -0.522385 119 35 32
-0.155012 -0.345231 -0.522158 119 35 37
-0.155976 -0.345296 -0.521931 118 34 36
-0.156939 -0.345362 -0.521703 109 32 34
-0.158015 -0.344927 -0.522345 105 28 30
-0.158977 -0.344992 -0.522118 127 68 48
-0.159940 -0.345058 -0.521891 170 111 91
-0.160902 -0.345123 -0.521664 158 102 63
-0.161864 -0.345188 -0.521438 151 95 56
-0.162826 -0.345253 -0.521211 153 86 51
-0.163788 -0.345318 -0.520984 142 75 40
-0.164750 -0.345384 -0.520757 143 71 42
-0.165713 -0.345449 -0.520530 149 77 48
-0.166675 -0.345514 -0.520304 156 89 49
-0.167637 -0.345579 -0.520077 152 85 45
-0.168599 -0.345645 -0.519850 149 77 41
-0.169561 -0.345710 -0.519623 142 70 34
-0.170524 -0.345775 -0.519397 136 51 35
-0.171486 -0.345840 -0.519170 126 41 25
-0.172448 -0.345905 -0.518943 117 30 26
-0.173410 -0.345971 -0.518716 119 32 28
-0.174372 -0.346036 -0.518489 114 31 28
-0.175334 -0.346101 -0.518263 113 30 27
-0.176297 -0.346166 -0.518036 114 31 28
-0.177259 -0.346231 -0.517809 116 33 30
-0.178221 -0.346297 -0.517582 118 34 31
-0.179183 -0.346362 -0.517356 118 34 31
-0.180145 -0.346427 -0.517129 121 32 29
-0.181108 -0.346492 -0.516902 121 32 29
-0.182070 -0.346558 -0.516675 124 32 30
-0.183032 -0.346623 -0.516448 124 32 30
-0.183994 -0.346688 -0.516222 126 31 30
-0.184956 -0.346753 -0.515995 126 31 30
-0.185918 -0.346818 -0.515768 127 32 29
-0.186881 -0.346884 -0.515541 127 32 29
-0.187905 -0.346446 -0.516195 126 31 28
-0.188866 -0.346511 -0.515968 126 31 28
-0.189826 -0.346576 -0.515742 129 33 30
-0.190787 -0.346641 -0.515515 128 32 29
-0.191804 -0.346203 -0.516171 128 32 29
-0.192763 -0.346268 -0.515945 128 32 29
-0.193721 -0.346333 -0.515719 128 32 29
-0.194629 -0.346901 -0.514610 128 32 29
-0.195639 -0.346463 -0.515267 127 31 28
-0.196598 -0.346528 -0.515041 128 32 29
-0.197557 -0.346593 -0.514815 130 32 27
-0.198516 -0.346658 -0.514589 129 31 26
-0.199519 -0.346218 -0.515247 130 32 27
-0.200476 -0.346283 -0.515022 130 32 27
-0.201433 -0.346348 -0.514796 131 33 28
-0.202391 -0.346413 -0.514570 131 33 28
-0.203348 -0.346478 -0.514345 131 33 28
-0.204305 -0.346543 -0.514119 131 33 28
-0.205263 -0.346608 -0.513893 130 32 27
-0.206220 -0.346672 -0.513668 129 31 26
-0.207178 -0.346737 -0.513442 130 32 27
-0.208135 -0.346802 -0.513216 129 31 26
-0.209092 -0.346867 -0.512991 126 30 27
-0.210050 -0.346932 -0.512765 126 30 27
-0.211007 -0.346997 -0.512540 124 29 26
-0.211964 -0.347062 -0.512314 124 29 26
-0.212922 -0.347127 -0.512088 123 31 27
-0.213898 -0.346686 -0.512753 123 31 27
-0.214854 -0.346750 -0.512528 131 42 37
-0.215810 -0.346815 -0.512302 131 42 37
-0.216766 -0.346880 -0.512077 131 42 37
-0.217709 -0.347451 -0.510960 129 40 35
-0.218666 -0.347516 -0.510734 128 39 34
-0.219623 -0.347581 -0.510509 127 38 33
-0.220581 -0.347646 -0.510283 125 36 31
-0.221538 -0.347711 -0.510057 127 38 33
-0.222496 -0.347776 -0.509832 127 38 33
-0.223453 -0.347840 -0.509606 128 39 34
-0.224410 -0.347905 -0.509380 128 39 34
-0.225368 -0.347970 -0.509155 128 39 34
-0.226325 -0.348035 -0.508929 127 38 33
-0.227283 -0.348100 -0.508703 127 38 33
-0.228240 -0.348165 -0.508478 126 39 33
-0.229197 -0.348230 -0.508252 124 37 31
-0.230155 -0.348295 -0.508026 127 40 34
-0.231112 -0.348360 -0.507801 124 37 31
-0.232069 -0.348424 -0.507575 123 34 31
-0.233027 -0.348489 -0.507350 122 33 30
-0.233984 -0.348554 -0.507124 123 34 31
-0.234942 -0.348619 -0.506898 123 34 31
-0.235899 -0.348684 -0.506673 123 34 31
-0.236856 -0.348749 -0.506447 123 34 31
-0.237793 -0.348305 -0.507121 124 35 30
-0.238749 -0.348370 -0.506896 123 34 29
-0.239704 -0.348435 -0.506671 122 33 28
-0.240660 -0.348499 -0.506445 122 33 28
-0.241616 -0.348564 -0.506220 122 33 30
-0.242572 -0.348629 -0.505995 122 33 30
-0.243527 -0.348694 -0.505769 122 33 30
-0.244483 -0.348759 -0.505544 122 33 30
-0.245439 -0.348823 -0.505319 122 35 31
-0.246395 -0.348888 -0.505094 120 33 29
-0.247351 -0.348953 -0.504868 120 33 29
-0.248306 -0.349018 -0.504643 121 34 30
-0.249182 -0.348062 -0.506227 119 35 30
-0.250218 -0.349147 -0.504193 119 35 30
-0.251174 -0.349212 -0.503967 118 34 29
-0.252040 -0.348256 -0.505553 117 33 28
-0.252992 -0.348321 -0.505328 117 33 30
-0.253945 -0.348385 -0.505104 119 35 32
-0.254897 -0.348450 -0.504879 118 34 31
-0.255953 -0.349536 -0.502841 115 31 28
-0.256908 -0.349601 -0.502616 117 34 31
-0.257810 -0.349154 -0.503298 116 33 30
-0.258764 -0.349219 -0.503073 114 31 28
-0.259718 -0.349284 -0.502848 113 30 27
-0.260613 -0.348837 -0.503532 111 31 27
-0.261566 -0.348902 -0.503308 111 31 27
-0.262518 -0.348966 -0.503083 108 30 28
-0.263471 -0.349031 -0.502859 108 30 28
-0.264358 -0.348584 -0.503545 108 30 28
-0.265309 -0.348648 -0.503321 109 31 29
-0.266260 -0.348712 -0.503096 109 31 29
-0.267210 -0.348777 -0.502872 109 31 29
-0.268161 -0.348841 -0.502648 108 32 29
-0.269112 -0.348906 -0.502424 108 32 29
-0.270063 -0.348970 -0.502200 106 33 31
-0.271014 -0.349035 -0.501976 109 36 34
-0.271965 -0.349099 -0.501752 106 39 40
-0.272916 -0.349164 -0.501527 113 46 47
-0.273867 -0.349228 -0.501303 101 58 62
-0.113772 -0.346158 -0.523269 90 68 60
-0.114750 -0.346224 -0.523039 108 41 42
-0.115729 -0.346290 -0.522808 107 40 41
-0.116707 -0.346357 -0.522578 111 38 34
-0.117685 -0.346423 -0.522347 111 38 34
-0.118663 -0.346489 -0.522117 113 37 34
-0.119641 -0.346556 -0.521886 112 36 33
-0.120619 -0.346622 -0.521655 112 36 33
-0.121598 -0.346688 -0.521425 113 37 34
-0.122576 -0.346754 -0.521194 113 38 32
-0.123554 -0.346821 -0.520964 113 38 32
-0.124697 -0.346392 -0.521590 114 37 32
-0.125674 -0.346458 -0.521360 115 38 33
-0.126650 -0.346525 -0.521130 114 37 32
-0.127627 -0.346591 -0.520900 114 37 32
-0.128604 -0.346657 -0.520669 117 37 33
-0.129580 -0.346723 -0.520439 117 37 33
-0.130712 -0.346294 -0.521068 118 38 34
-0.131687 -0.346360 -0.520838 121 41 37
-0.132814 -0.345931 -0.521469 123 43 35
-0.133938 -0.345501 -0.522100 124 44 36
-0.134910 -0.345567 -0.521871 124 45 32
-0.135882 -0.345633 -0.521641 132 53 40
-0.136854 -0.345698 -0.521412 140 72 46
-0.137825 -0.345764 -0.521183 161 93 67
-0.138940 -0.345334 -0.521817 157 96 59
-0.139910 -0.345400 -0.521588 158 97 60
-0.140880 -0.345465 -0.521359 156 90 52
-0.141850 -0.345531 -0.521131 152 86 48
-0.142821 -0.345597 -0.520902 155 85 48
-0.143925 -0.345166 -0.521537 151 81 44
-0.144894 -0.345231 -0.521309 148 71 44
-0.145863 -0.345297 -0.521081 145 68 41
-0.146961 -0.344866 -0.521718 138 60 42
-0.147928 -0.344931 -0.521490 132 54 36
-0.149021 -0.344499 -0.522128 122 47 37
-0.149987 -0.344565 -0.521900 119 44 34
-0.150952 -0.344630 -0.521673 116 42 43
-0.151918 -0.344696 -0.521445 110 36 37
-0.152883 -0.344761 -0.521218 114 53 58
-0.153848 -0.344827 -0.520990 115 54 59
-0.154931 -0.344394 -0.521631 109 61 67
-0.155894 -0.344459 -0.521404 113 65 71
-0.156858 -0.344525 -0.521177 115 77 79
-0.157822 -0.344590 -0.520949 134 96 98
-0.158786 -0.344655 -0.520722 161 122 100
-0.159859 -0.344222 -0.521365 156 117 95
-0.160821 -0.344287 -0.521138 158 104 64
-0.161783 -0.344352 -0.520912 151 97 57
-0.162745 -0.344418 -0.520685 153 85 50
-0.163707 -0.344483 -0.520458 142 74 39
-0.164569 -0.345047 -0.519359 141 70 38
-0.165532 -0.345112 -0.519132 149 78 46
-0.166496 -0.345178 -0.518905 157 90 52
-0.167460 -0.345243 -0.518678 152 85 47
-0.168424 -0.345308 -0.518451 149 76 43
-0.169387 -0.345374 -0.518223 142 69 36
-0.170351 -0.345439 -0.517996 139 57 40
-0.171315 -0.345504 -0.517769 127 45 28
-0.172279 -0.345570 -0.517542 139 67 58
-0.173243 -0.345635 -0.517315 149 77 68
-0.174206 -0.345700 -0.517088 128 77 63
-0.175170 -0.345766 -0.516861 121 70 56
-0.176134 -0.345831 -0.516633 128 75 62
-0.177098 -0.345896 -0.516406 110 57 44
-0.178061 -0.345962 -0.516179 116 55 47
-0.179025 -0.346027 -0.515952 118 57 49
-0.179989 -0.346092 -0.515725 115 43 39
-0.180953 -0.346158 -0.515498 111 39 35
-0.181989 -0.345722 -0.516149 120 36 33
-0.182880 -0.346288 -0.515043 119 35 32
-0.183913 -0.345852 -0.515696 122 33 30
-0.184875 -0.345918 -0.515469 122 33 30
-0.185837 -0.345983 -0.515242 124 32 28
-0.186800 -0.346048 -0.515015 125 33 29
-0.187762 -0.346113 -0.514789 126 31 28
-0.188724 -0.346178 -0.514562 126 31 28
-0.189686 -0.346244 -0.514335 129 33 30
-0.190706 -0.345807 -0.514990 129 33 30
-0.191667 -0.345872 -0.514764 128 32 29
-0.192627 -0.345937 -0.514538 128 32 29
-0.193588 -0.346002 -0.514311 128 32 29
-0.194548 -0.346067 -0.514085 128 32 29
-0.195559 -0.345630 -0.514742 127 31 28
-0.196518 -0.345695 -0.514516 128 32 29
-0.197477 -0.345760 -0.514290 130 31 29
-0.198436 -0.345825 -0.514064 129 30 28
-0.199395 -0.345890 -0.513838 130 32 27
-0.200354 -0.345955 -0.513612 130 32 27
-0.201313 -0.346020 -0.513386 131 33 28
-0.202272 -0.346085 -0.513160 131 33 28
-0.203231 -0.346150 -0.512934 131 33 28
-0.204190 -0.346215 -0.512708 130 32 27
-0.205149 -0.346280 -0.512482 130 32 27
-0.206108 -0.346345 -0.512256 129 31 26
-0.207066 -0.346410 -0.512030 128 33 27
-0.208025 -0.346475 -0.511804 127 32 26
-0.208984 -0.346540 -0.511578 126 30 27
-0.209969 -0.346101 -0.512242 126 30 27
-0.210927 -0.346165 -0.512016 122 30 26
-0.211884 -0.346230 -0.511791 120 28 24
-0.212841 -0.346295 -0.511565 123 31 29
-0.213799 -0.346360 -0.511339 126 34 32
-0.214756 -0.346425 -0.511114 135 46 41
-0.215713 -0.346490 -0.510888 132 43 38
-0.216671 -0.346555 -0.510662 132 43 38
-0.217628 -0.346620 -0.510437 130 41 36
-0.218586 -0.346685 -0.510211 130 41 36
-0.219543 -0.346749 -0.509985 129 40 35
-0.220500 -0.346814 -0.509760 128 39 34
-0.221458 -0.346879 -0.509534 129 40 35
-0.222415 -0.346944 -0.509308 129 40 35
-0.223372 -0.347009 -0.509083 129 40 35
-0.224330 -0.347074 -0.508857 130 41 36
-0.225287 -0.347139 -0.508631 130 41 36
-0.226245 -0.347204 -0.508406 129 40 35
-0.227202 -0.347269 -0.508180 129 40 35
-0.228164 -0.347840 -0.507058 127 40 34
-0.229123 -0.347905 -0.506831 126 39 33
-0.230082 -0.347970 -0.506605 127 40 34
-0.231041 -0.348035 -0.506379 126 39 33
-0.232000 -0.348100 -0.506153 124 37 31
-0.232959 -0.348165 -0.505927 122 35 29
-0.233918 -0.348230 -0.505701 125 36 31
-0.234877 -0.348295 -0.505475 124 35 30
-0.235836 -0.348360 -0.505249 124 35 30
-0.236795 -0.348425 -0.505023 124 35 30
-0.237733 -0.347982 -0.505698 125 36 31
-0.238690 -0.348047 -0.505472 124 35 30
-0.239648 -0.348112 -0.505247 123 34 29
-0.240605 -0.348177 -0.505021 123 34 29
-0.241563 -0.348242 -0.504795 124 35 32
-0.242520 -0.348307 -0.504570 123 34 31
-0.243477 -0.348372 -0.504344 123 34 31
-0.244435 -0.348437 -0.504118 123 34 31
-0.245392 -0.348501 -0.503893 124 37 33
-0.246349 -0.348566 -0.503667 123 36 32
-0.247307 -0.348631 -0.503441 123 36 32
-0.248264 -0.348696 -0.503216 123 36 32
-0.249222 -0.348761 -0.502990 122 38 33
-0.250179 -0.348826 -0.502764 120 36 31
-0.251136 -0.348891 -0.502539 120 36 31
-0.252094 -0.348956 -0.502313 120 36 31
-0.252958 -0.348002 -0.503901 119 36 33
-0.253913 -0.348067 -0.503676 120 37 34
-0.254867 -0.348132 -0.503451 119 36 33
-0.255923 -0.349215 -0.501411 120 37 34
-0.256881 -0.349280 -0.501185 121 36 36
-0.257784 -0.348835 -0.501868 121 36 36
-0.258739 -0.348900 -0.501643 120 36 33
-0.259638 -0.348455 -0.502327 119 35 32
-0.260592 -0.348520 -0.502102 117 34 31
-0.261546 -0.348584 -0.501877 116 33 30
-0.262438 -0.348139 -0.502563 114 34 30
-0.263390 -0.348204 -0.502338 114 34 30
-0.264343 -0.348268 -0.502114 110 33 28
-0.265296 -0.348333 -0.501889 110 33 28
-0.266248 -0.348397 -0.501665 109 33 30
-0.267201 -0.348462 -0.501440 109 33 30
-0.268153 -0.348526 -0.501215 106 33 29
-0.269106 -0.348591 -0.500991 106 33 29
-0.270059 -0.348655 -0.500766 106 33 31
-0.271011 -0.348720 -0.500542 109 36 34
-0.271964 -0.348785 -0.500317 106 41 43
-0.272916 -0.348849 -0.500093 114 49 51
-0.273869 -0.348914 -0.499868 96 58 60
-0.113690 -0.345308 -0.522735 92 70 62
-0.114668 -0.345375 -0.522504 108 41 42
-0.115646 -0.345441 -0.522274 107 40 41
-0.116624 -0.345507 -0.522043 111 38 34
-0.117603 -0.345573 -0.521812 111 38 34
-0.118581 -0.345640 -0.521582 112 36 33
-0.119559 -0.345706 -0.521351 112 36 33
-0.120537 -0.345772 -0.521121 112 36 33
-0.121515 -0.345839 -0.520890 113 37 34
-0.122494 -0.345905 -0.520660 113 38 32
-0.123472 -0.345971 -0.520429 113 38 32
-0.124615 -0.345544 -0.521056 113 38 32
-0.125592 -0.345610 -0.520826 114 39 33
-0.126568 -0.345677 -0.520596 114 37 32
-0.127545 -0.345743 -0.520366 114 37 32
-0.128521 -0.345809 -0.520136 117 37 33
-0.129498 -0.345875 -0.519905 116 36 32
-0.130630 -0.345447 -0.520535 117 37 33
-0.131605 -0.345513 -0.520306 118 38 34
-0.132732 -0.345085 -0.520937 121 41 35
-0.133706 -0.345151 -0.520707 122 42 36
-0.134679 -0.345217 -0.520478 123 43 35
-0.135653 -0.345283 -0.520248 126 46 38
-0.136772 -0.344854 -0.520881 123 48 31
-0.137744 -0.344920 -0.520652 135 60 43
-0.138715 -0.344986 -0.520423 148 80 54
-0.139687 -0.345052 -0.520194 159 91 65
-0.140799 -0.344623 -0.520829 156 92 58
-0.141769 -0.344689 -0.520600 150 86 52
-0.142739 -0.344754 -0.520372 154 83 51
-0.143844 -0.344325 -0.521008 148 77 45
-0.144812 -0.344390 -0.520780 144 67 44
-0.145781 -0.344456 -0.520551 141 64 41
-0.146750 -0.344522 -0.520323 130 61 42
-0.147718 -0.344587 -0.520095 125 56 37
-0.148813 -0.344157 -0.520733 112 55 46
-0.149780 -0.344222 -0.520505 113 56 47
-0.150747 -0.344288 -0.520277 107 64 68
-0.151714 -0.344354 -0.520050 132 89 93
-0.152681 -0.344419 -0.519822 140 123 125
-0.153648 -0.344485 -0.519594 145 128 130
-0.154732 -0.344054 -0.520235 129 123 125
-0.155698 -0.344119 -0.520007 128 122 124
-0.156663 -0.344184 -0.519780 139 133 135
-0.157741 -0.343753 -0.520423 151 145 147
-0.158705 -0.343818 -0.520195 163 144 119
-0.159669 -0.343884 -0.519968 145 126 101
-0.160632 -0.343949 -0.519741 158 106 66
-0.161596 -0.344014 -0.519514 150 98 58
-0.162560 -0.344080 -0.519287 153 85 50
-0.163524 -0.344145 -0.519060 146 78 43
-0.164386 -0.344708 -0.517960 151 80 46
-0.165352 -0.344773 -0.517732 155 84 50
-0.166317 -0.344839 -0.517504 156 88 53
-0.167282 -0.344904 -0.517277 152 84 49
-0.168248 -0.344970 -0.517049 149 76 43
-0.169213 -0.345035 -0.516822 144 71 38
-0.170179 -0.345100 -0.516594 141 60 43
-0.171144 -0.345166 -0.516367 135 54 37
-0.172109 -0.345231 -0.516139 159 101 87
-0.173075 -0.345297 -0.515912 150 92 78
-0.174040 -0.345362 -0.515684 125 96 75
-0.175006 -0.345428 -0.515457 127 98 77
-0.175971 -0.345493 -0.515229 122 89 72
-0.176936 -0.345558 -0.515002 119 86 69
-0.177902 -0.345624 -0.514774 120 85 70
-0.178867 -0.345689 -0.514546 117 82 67
-0.179832 -0.345755 -0.514319 127 72 67
-0.180872 -0.345321 -0.514971 120 65 60
-0.181835 -0.345386 -0.514744 123 42 41
-0.182799 -0.345451 -0.514516 117 36 35
-0.183763 -0.345517 -0.514289 122 35 31
-0.184727 -0.345582 -0.514062 121 34 30
-0.185691 -0.345647 -0.513835 124 32 28
-0.186654 -0.345713 -0.513608 124 32 28
-0.187618 -0.345778 -0.513381 126 31 28
-0.188582 -0.345843 -0.513153 125 30 27
-0.189546 -0.345909 -0.512926 128 32 29
-0.190567 -0.345473 -0.513582 128 32 29
-0.191530 -0.345538 -0.513355 128 32 29
-0.192492 -0.345604 -0.513129 128 32 29
-0.193454 -0.345669 -0.512902 128 32 29
-0.194416 -0.345734 -0.512675 128 32 29
-0.195428 -0.345298 -0.513333 128 32 29
-0.196389 -0.345363 -0.513107 128 32 29
-0.197349 -0.345428 -0.512880 130 31 29
-0.198310 -0.345493 -0.512654 129 30 28
-0.199314 -0.345057 -0.513314 130 32 27
-0.200273 -0.345122 -0.513088 130 32 27
-0.201232 -0.345187 -0.512862 131 33 28
-0.202191 -0.345252 -0.512636 130 32 27
-0.203150 -0.345317 -0.512410 131 33 28
-0.204109 -0.345382 -0.512184 130 32 27
-0.205068 -0.345447 -0.511958 128 33 27
-0.206027 -0.345512 -0.511732 128 33 27
-0.206986 -0.345577 -0.511506 128 33 27
-0.207945 -0.345642 -0.511280 127 32 26
-0.208904 -0.345707 -0.511054 125 30 27
-0.209863 -0.345772 -0.510828 125 30 27
-0.210822 -0.345837 -0.510602 122 30 26
-0.211781 -0.345902 -0.510376 120 28 24
-0.212740 -0.345967 -0.510150 122 33 28
-0.213699 -0.346032 -0.509924 130 41 36
-0.214658 -0.346097 -0.509698 135 46 43
-0.215617 -0.346162 -0.509472 134 45 42
-0.216576 -0.346227 -0.509246 134 45 40
-0.217535 -0.346292 -0.509020 131 42 37
-0.218494 -0.346357 -0.508794 132 43 38
-0.219453 -0.346422 -0.508568 130 41 36
-0.220411 -0.346487 -0.508342 130 41 36
-0.221370 -0.346552 -0.508116 131 42 37
-0.222329 -0.346617 -0.507889 129 42 36
-0.223288 -0.346682 -0.507663 129 42 36
-0.224247 -0.346747 -0.507437 129 42 36
-0.225206 -0.346812 -0.507211 129 42 36
-0.226165 -0.346877 -0.506985 129 42 36
-0.227124 -0.346942 -0.506759 130 43 37
-0.228083 -0.347007 -0.506533 128 41 35
-0.229042 -0.347072 -0.506307 127 40 34
-0.230001 -0.347137 -0.506081 128 41 35
-0.230960 -0.347202 -0.505855 127 40 34
-0.231919 -0.347267 -0.505629 126 39 33
-0.232878 -0.347332 -0.505403 124 37 31
-0.233851 -0.347902 -0.504277 126 39 33
-0.234812 -0.347967 -0.504051 126 39 33
-0.235773 -0.348033 -0.503824 125 36 31
-0.236733 -0.348098 -0.503598 124 35 30
-0.237673 -0.347657 -0.504273 127 38 33
-0.238632 -0.347722 -0.504047 127 38 33
-0.239591 -0.347787 -0.503821 124 35 30
-0.240550 -0.347852 -0.503595 124 35 30
-0.241509 -0.347917 -0.503369 124 35 30
-0.242468 -0.347982 -0.503143 124 35 30
-0.243427 -0.348047 -0.502917 124 35 30
-0.244386 -0.348112 -0.502691 124 35 30
-0.245345 -0.348177 -0.502465 125 36 31
-0.246304 -0.348242 -0.502239 125 36 31
-0.247263 -0.348307 -0.502013 125 36 31
-0.248222 -0.348372 -0.501787 125 36 31
-0.249181 -0.348437 -0.501561 124 37 31
-0.250140 -0.348502 -0.501335 123 36 30
-0.251013 -0.347552 -0.502922 121 37 32
-0.251969 -0.347617 -0.502697 122 38 33
-0.253017 -0.348697 -0.500657 121 38 35
-0.253880 -0.347746 -0.502247 123 40 37
-0.254836 -0.347811 -0.502021 124 40 37
-0.255741 -0.347368 -0.502705 124 40 37
-0.256853 -0.348957 -0.499752 124 39 39
-0.257649 -0.347497 -0.502255 124 39 39
-0.258603 -0.347562 -0.502030 124 39 39
-0.259557 -0.347626 -0.501805 122 37 37
-0.260512 -0.347691 -0.501580 119 36 33
-0.261466 -0.347756 -0.501355 119 36 33
-0.262420 -0.347820 -0.501130 120 37 34
-0.263374 -0.347885 -0.500906 120 37 34
-0.264328 -0.347950 -0.500681 117 37 33
-0.265282 -0.348014 -0.500456 115 35 31
-0.266237 -0.348079 -0.500231 109 33 30
-0.267191 -0.348144 -0.500006 108 32 29
-0.268145 -0.348208 -0.499781 107 34 30
-0.269099 -0.348273 -0.499556 106 33 29
-0.270053 -0.348338 -0.499331 107 34 32
-0.271008 -0.348403 -0.499106 110 37 35
-0.271962 -0.348467 -0.498882 106 43 47
-0.272916 -0.348532 -0.498657 113 50 54
-0.273870 -0.348597 -0.498432 91 55 59
-0.113425 -0.344950 -0.521345 94 73 68
-0.114586 -0.344525 -0.521969 106 39 40
-0.115564 -0.344591 -0.521739 107 40 41
-0.116542 -0.344658 -0.521508 111 38 34
-0.117520 -0.344724 -0.521278 111 38 34
-0.118498 -0.344790 -0.521047 110 37 33
-0.119477 -0.344857 -0.520817 110 37 33
-0.120455 -0.344923 -0.520586 112 36 33
-0.121433 -0.344989 -0.520355 112 36 33
-0.122411 -0.345055 -0.520125 113 38 32
-0.123389 -0.345122 -0.519894 113 38 32
-0.124368 -0.345188 -0.519664 113 38 32
-0.125346 -0.345254 -0.519433 114 39 33
-0.126324 -0.345321 -0.519203 113 36 31
-0.127463 -0.344895 -0.519832 113 36 31
-0.128439 -0.344961 -0.519602 116 36 32
-0.129416 -0.345027 -0.519372 116 36 32
-0.130392 -0.345093 -0.519141 117 37 33
-0.131369 -0.345159 -0.518911 118 38 34
-0.132498 -0.344733 -0.519543 119 39 35
-0.133473 -0.344799 -0.519313 121 41 37
-0.134448 -0.344865 -0.519083 121 41 35
-0.135423 -0.344931 -0.518853 122 42 36
-0.136544 -0.344504 -0.519487 121 46 36
-0.137517 -0.344570 -0.519257 125 50 40
-0.138634 -0.344142 -0.519892 123 57 37
-0.139605 -0.344208 -0.519663 139 73 53
-0.140577 -0.344274 -0.519434 151 89 59
-0.141687 -0.343846 -0.520070 150 88 58
-0.142657 -0.343912 -0.519841 151 83 53
-0.143627 -0.343978 -0.519613 142 74 44
-0.144731 -0.343549 -0.520250 138 69 48
-0.145700 -0.343615 -0.520022 142 73 52
-0.146668 -0.343680 -0.519794 129 84 61
-0.147637 -0.343746 -0.519565 131 86 63
-0.148605 -0.343812 -0.519337 108 79 69
-0.149699 -0.343383 -0.519977 104 75 65
-0.150666 -0.343448 -0.519749 101 86 87
-0.151633 -0.343514 -0.519521 137 122 123
-0.152600 -0.343579 -0.519293 135 138 139
-0.153567 -0.343645 -0.519065 133 136 137
-0.154651 -0.343215 -0.519707 125 132 136
-0.155617 -0.343281 -0.519480 121 128 132
-0.156582 -0.343346 -0.519252 129 135 135
-0.157547 -0.343411 -0.519025 138 144 144
-0.158513 -0.343477 -0.518797 156 145 122
-0.159478 -0.343542 -0.518570 144 133 110
-0.160444 -0.343608 -0.518342 156 107 68
-0.161409 -0.343673 -0.518114 148 99 60
-0.162374 -0.343739 -0.517887 152 86 48
-0.163340 -0.343804 -0.517659 149 83 45
-0.164305 -0.343869 -0.517432 154 87 49
-0.165270 -0.343935 -0.517204 155 88 50
-0.166236 -0.344000 -0.516977 155 87 52
-0.167105 -0.344562 -0.515874 149 81 46
-0.168072 -0.344628 -0.515646 147 76 44
-0.169039 -0.344693 -0.515418 143 72 40
-0.170006 -0.344759 -0.515191 138 63 44
-0.171063 -0.344328 -0.515839 136 61 42
-0.172028 -0.344393 -0.515612 139 83 69
-0.172994 -0.344458 -0.515384 128 72 58
-0.173959 -0.344524 -0.515156 111 83 66
-0.174924 -0.344589 -0.514929 109 81 64
-0.175890 -0.344655 -0.514701 105 74 61
-0.176855 -0.344720 -0.514474 105 74 61
-0.177820 -0.344786 -0.514246 113 77 67
-0.178786 -0.344851 -0.514019 114 78 68
-0.179751 -0.344916 -0.513791 123 68 63
-0.180717 -0.344982 -0.513564 116 61 56
-0.181682 -0.345047 -0.513336 124 46 44
-0.182647 -0.345113 -0.513109 119 41 39
-0.183613 -0.345178 -0.512881 121 37 32
-0.184578 -0.345244 -0.512654 120 36 31
-0.185544 -0.345309 -0.512426 124 32 28
-0.186509 -0.345374 -0.512198 124 32 28
-0.187537 -0.344941 -0.512854 124 32 28
-0.188501 -0.345006 -0.512627 123 31 27
-0.189465 -0.345072 -0.512399 128 33 30
-0.190428 -0.345137 -0.512172 126 31 28
-0.191392 -0.345202 -0.511945 127 32 29
-0.192356 -0.345268 -0.511718 128 33 30
-0.193320 -0.345333 -0.511491 128 32 29
-0.194284 -0.345398 -0.511264 127 31 28
-0.195297 -0.344964 -0.511922 128 33 27
-0.196260 -0.345029 -0.511696 127 32 26
-0.197222 -0.345094 -0.511469 128 33 27
-0.198184 -0.345159 -0.511242 128 33 27
-0.199190 -0.344724 -0.511903 130 32 27
-0.200150 -0.344789 -0.511676 130 32 27
-0.201111 -0.344855 -0.511450 131 33 28
-0.202071 -0.344920 -0.511223 131 33 28
-0.203032 -0.344985 -0.510997 131 33 28
-0.203993 -0.345050 -0.510771 131 33 28
-0.204953 -0.345115 -0.510544 128 33 27
-0.205914 -0.345180 -0.510318 128 33 27
-0.206874 -0.345245 -0.510091 127 32 26
-0.207835 -0.345310 -0.509865 126 31 25
-0.208795 -0.345375 -0.509639 125 30 27
-0.209756 -0.345441 -0.509412 125 30 27
-0.210717 -0.345506 -0.509186 120 28 24
-0.211677 -0.345571 -0.508959 120 28 24
-0.212638 -0.345636 -0.508733 125 36 33
-0.213598 -0.345701 -0.508507 134 45 42
-0.214559 -0.345766 -0.508280 136 47 44
-0.215520 -0.345831 -0.508054 135 46 43
-0.216480 -0.345896 -0.507827 135 46 41
-0.217441 -0.345961 -0.507601 132 43 38
-0.218401 -0.346026 -0.507374 134 45 40
-0.219362 -0.346092 -0.507148 132 43 38
-0.220322 -0.346157 -0.506922 132 44 36
-0.221283 -0.346222 -0.506695 132 44 36
-0.222244 -0.346287 -0.506469 131 45 36
-0.223204 -0.346352 -0.506242 131 45 36
-0.224165 -0.346417 -0.506016 130 43 37
-0.225125 -0.346482 -0.505790 131 44 38
-0.226086 -0.346547 -0.505563 131 44 38
-0.227046 -0.346612 -0.505337 131 44 38
-0.228007 -0.346678 -0.505110 131 44 38
-0.228968 -0.346743 -0.504884 130 43 37
-0.229928 -0.346808 -0.504658 129 42 36
-0.230889 -0.346873 -0.504431 129 42 36
-0.231849 -0.346938 -0.504205 128 41 37
-0.232810 -0.347003 -0.503978 127 40 36
-0.233771 -0.347068 -0.503752 128 41 37
-0.234731 -0.347133 -0.503526 127 40 36
-0.235692 -0.347198 -0.503299 126 39 35
-0.236652 -0.347263 -0.503073 127 40 36
-0.237613 -0.347329 -0.502846 127 40 34
-0.238573 -0.347394 -0.502620 127 40 34
-0.239534 -0.347459 -0.502394 125 36 31
-0.240495 -0.347524 -0.502167 125 36 31
-0.241455 -0.347589 -0.501941 127 38 33
-0.242416 -0.347654 -0.501714 125 36 31
-0.243376 -0.347719 -0.501488 125 36 31
-0.244337 -0.347784 -0.501262 127 38 33
-0.245297 -0.347849 -0.501035 127 38 33
-0.246258 -0.347915 -0.500809 127 38 33
-0.247219 -0.347980 -0.500582 127 38 33
-0.248179 -0.348045 -0.500356 127 38 33
-0.249140 -0.348110 -0.500129 127 38 33
-0.250100 -0.348175 -0.499903 125 36 31
-0.251061 -0.348240 -0.499677 124 37 33
-0.251888 -0.346787 -0.502175 126 39 35
-0.252844 -0.346851 -0.501949 125 41 38
-0.253800 -0.346916 -0.501724 125 41 38
-0.254756 -0.346981 -0.501499 125 41 38
-0.255711 -0.347046 -0.501274 127 43 40
-0.256667 -0.347111 -0.501048 126 42 42
-0.257623 -0.347175 -0.500823 126 42 42
-0.258579 -0.347240 -0.500598 124 47 42
-0.259534 -0.347305 -0.500372 124 47 42
