ply
format ascii 1.0
element vertex 1190
property float x
property float y
property float z
property uchar red
property uchar green
property uchar blue
end_header
-0.204401 -0.424381 -0.602874 160 52 39
-0.205097 -0.424434 -0.602257 152 42 28
-0.206303 -0.423835 -0.602220 150 40 26
-0.206997 -0.423887 -0.601604 152 36 24
-0.208199 -0.423288 -0.601570 152 36 24
-0.208893 -0.423340 -0.600955 152 36 24
-0.210091 -0.422741 -0.600925 151 35 23
-0.210783 -0.422793 -0.600311 150 34 22
-0.211475 -0.422845 -0.599697 150 34 22
-0.212167 -0.422897 -0.599084 150 34 22
-0.213359 -0.422297 -0.599059 149 33 21
-0.214050 -0.422349 -0.598446 146 33 20
-0.214741 -0.422401 -0.597833 145 32 19
-0.215928 -0.421800 -0.597813 141 31 17
-0.217113 -0.421200 -0.597794 140 30 16
-0.217801 -0.421252 -0.597184 139 31 18
-0.218490 -0.421304 -0.596573 139 31 18
-0.219669 -0.420703 -0.596559 137 30 20
-0.220357 -0.420754 -0.595950 136 29 19
-0.221044 -0.420806 -0.595341 137 30 20
-0.221731 -0.420858 -0.594731 136 29 19
-0.222905 -0.420257 -0.594723 135 28 18
-0.223590 -0.420308 -0.594114 136 29 19
-0.224276 -0.420360 -0.593506 136 29 19
-0.225445 -0.419758 -0.593502 136 29 19
-0.226130 -0.419810 -0.592895 135 30 19
-0.226814 -0.419861 -0.592288 136 31 20
-0.227499 -0.419913 -0.591681 137 32 21
-0.228184 -0.419964 -0.591073 135 30 19
-0.228868 -0.420015 -0.590466 134 29 20
-0.229553 -0.420067 -0.589859 133 28 19
-0.230238 -0.420118 -0.589252 130 28 18
-0.230922 -0.420170 -0.588645 130 28 18
-0.231607 -0.420221 -0.588038 128 26 16
-0.232292 -0.420273 -0.587431 128 26 16
-0.232976 -0.420324 -0.586823 128 26 18
-0.233661 -0.420376 -0.586216 128 26 18
-0.234345 -0.420427 -0.585609 125 26 17
-0.235030 -0.420479 -0.585002 125 26 17
-0.235715 -0.420530 -0.584395 123 26 16
-0.236399 -0.420582 -0.583788 123 26 16
-0.237084 -0.420633 -0.583181 120 25 17
-0.237769 -0.420685 -0.582574 120 25 17
-0.238453 -0.420736 -0.581966 116 25 18
-0.239138 -0.420788 -0.581359 118 27 20
-0.239823 -0.420839 -0.580752 117 26 19
-0.240507 -0.420891 -0.580145 117 26 19
-0.241192 -0.420942 -0.579538 116 28 20
-0.241877 -0.420994 -0.578931 116 28 20
-0.243013 -0.420390 -0.578955 115 29 20
-0.243697 -0.420441 -0.578349 115 29 20
-0.244380 -0.420492 -0.577743 113 30 20
-0.245064 -0.420544 -0.577137 113 30 20
-0.246194 -0.419939 -0.577166 114 31 21
-0.246876 -0.419990 -0.576561 115 32 22
-0.248003 -0.419386 -0.576594 115 32 22
-0.248684 -0.419437 -0.575990 117 34 24
-0.249808 -0.418832 -0.576026 119 33 24
-0.250487 -0.418883 -0.575424 120 34 25
-0.251167 -0.418934 -0.574821 121 33 23
-0.252285 -0.418329 -0.574861 122 34 24
-0.252964 -0.418380 -0.574260 124 33 24
-0.253642 -0.418431 -0.573658 126 35 26
-0.254756 -0.417825 -0.573703 129 38 29
-0.255433 -0.417876 -0.573102 133 42 33
-0.256543 -0.417270 -0.573150 130 48 38
-0.257650 -0.416664 -0.573201 135 53 43
-0.258325 -0.416714 -0.572602 129 57 48
-0.259428 -0.416108 -0.572656 136 64 55
-0.260102 -0.416158 -0.572059 139 78 72
-0.261202 -0.415552 -0.572115 152 91 85
-0.261874 -0.415602 -0.571519 150 96 88
-0.262546 -0.415653 -0.570923 151 97 89
-0.263641 -0.415046 -0.570984 147 101 95
-0.264312 -0.415096 -0.570389 151 105 99
-0.264983 -0.415147 -0.569794 163 127 119
-0.266073 -0.414539 -0.569860 181 145 137
-0.266743 -0.414589 -0.569266 175 141 131
-0.267413 -0.414640 -0.568672 155 121 111
-0.268498 -0.414032 -0.568741 151 94 87
-0.269167 -0.414082 -0.568149 118 61 54
-0.269835 -0.414132 -0.567556 131 73 59
-0.270916 -0.413524 -0.567630 151 93 79
-0.271583 -0.413574 -0.567038 156 112 92
-0.272250 -0.413624 -0.566446 165 121 101
-0.273326 -0.413016 -0.566525 170 144 131
-0.273992 -0.413066 -0.565934 170 144 131
-0.274658 -0.413116 -0.565343 162 148 133
-0.275728 -0.412507 -0.565426 163 149 134
-0.276393 -0.412557 -0.564837 158 143 133
-0.277058 -0.412607 -0.564247 156 141 131
-0.277723 -0.412657 -0.563657 152 130 122
-0.278388 -0.412707 -0.563068 141 119 111
-0.279053 -0.412757 -0.562478 147 105 104
-0.279718 -0.412807 -0.561889 133 91 90
-0.280383 -0.412857 -0.561299 141 106 103
-0.281048 -0.412907 -0.560709 146 111 108
-0.281713 -0.412957 -0.560120 144 114 109
-0.282770 -0.412347 -0.560215 146 116 111
-0.283433 -0.412397 -0.559626 147 126 121
-0.284097 -0.412447 -0.559037 168 147 142
-0.285149 -0.411836 -0.559137 173 159 151
-0.285811 -0.411886 -0.558549 170 156 148
-0.286859 -0.411275 -0.558652 168 146 138
-0.287905 -0.410665 -0.558757 153 131 123
-0.288948 -0.410054 -0.558864 149 103 99
-0.289607 -0.410103 -0.558280 124 78 74
-0.293096 -0.407608 -0.559314 142 102 89
-0.293750 -0.407657 -0.558734 153 113 100
-0.294780 -0.407045 -0.558854 144 99 88
-0.295432 -0.407094 -0.558275 142 97 86
-0.296085 -0.407143 -0.557696 142 89 76
-0.296738 -0.407192 -0.557117 120 67 54
-0.297390 -0.407241 -0.556539 113 53 40
-0.169737 -0.433395 -0.614353 74 37 34
-0.170455 -0.433449 -0.613716 70 33 30
-0.171726 -0.432857 -0.613622 70 28 27
-0.172443 -0.432911 -0.612986 71 29 28
-0.173159 -0.432965 -0.612351 77 30 31
-0.173876 -0.433019 -0.611715 77 30 31
-0.175141 -0.432426 -0.611627 78 31 30
-0.175857 -0.432479 -0.610992 79 32 31
-0.177119 -0.431886 -0.610907 81 32 31
-0.177833 -0.431940 -0.610273 82 33 32
-0.178547 -0.431994 -0.609640 82 33 32
-0.179804 -0.431400 -0.609559 82 33 32
-0.179434 -0.432748 -0.607820 83 34 33
-0.180150 -0.432802 -0.607186 85 36 35
-0.181404 -0.432208 -0.607107 85 37 33
-0.182118 -0.432262 -0.606473 85 37 33
-0.183369 -0.431668 -0.606398 87 37 32
-0.184082 -0.431722 -0.605765 88 38 33
-0.184795 -0.431775 -0.605133 91 38 34
-0.186040 -0.431181 -0.605062 93 40 36
-0.186752 -0.431234 -0.604431 98 40 36
-0.187994 -0.430639 -0.604363 100 42 38
-0.192937 -0.425506 -0.608246 104 45 38
-0.194165 -0.424910 -0.608190 105 46 39
-0.194864 -0.424963 -0.607570 111 47 40
-0.196089 -0.424367 -0.607517 111 47 40
-0.196787 -0.424419 -0.606898 118 47 40
-0.197486 -0.424472 -0.606279 119 48 41
-0.198184 -0.424524 -0.605660 124 47 38
-0.199402 -0.423928 -0.605612 124 47 38
-0.200618 -0.423331 -0.605567 131 45 36
-0.201314 -0.423383 -0.604950 131 45 36
-0.202010 -0.423436 -0.604333 138 44 36
-0.202706 -0.423488 -0.603717 138 44 36
-0.203916 -0.422891 -0.603677 148 49 36
-0.204610 -0.422943 -0.603061 161 62 49
-0.205305 -0.422995 -0.602445 158 52 37
-0.206510 -0.422398 -0.602410 150 44 29
-0.207203 -0.422450 -0.601795 153 43 29
-0.208404 -0.421852 -0.601763 154 44 30
-0.209096 -0.421904 -0.601149 154 41 28
-0.210294 -0.421306 -0.601121 153 40 27
-0.210985 -0.421358 -0.600508 152 39 26
-0.211676 -0.421410 -0.599895 152 39 26
-0.212366 -0.421462 -0.599283 150 37 24
-0.213558 -0.420863 -0.599260 149 36 23
-0.214247 -0.420915 -0.598648 149 36 23
-0.214937 -0.420967 -0.598037 147 34 21
-0.216124 -0.420368 -0.598018 143 33 21
-0.217308 -0.419769 -0.598001 141 31 19
-0.217995 -0.419821 -0.597392 142 34 21
-0.218682 -0.419872 -0.596782 142 34 21
-0.219861 -0.419273 -0.596770 138 32 19
-0.220547 -0.419324 -0.596162 137 31 18
-0.221233 -0.419376 -0.595554 137 31 18
-0.221919 -0.419428 -0.594945 137 31 18
-0.223092 -0.418828 -0.594938 137 31 18
-0.223776 -0.418879 -0.594331 137 31 18
-0.224461 -0.418931 -0.593724 137 31 18
-0.225629 -0.418330 -0.593722 136 30 17
-0.226313 -0.418382 -0.593116 136 31 20
-0.226996 -0.418433 -0.592510 137 32 21
-0.228159 -0.417832 -0.592511 137 32 21
-0.228841 -0.417884 -0.591907 136 31 20
-0.229524 -0.417935 -0.591302 134 29 18
-0.230206 -0.417986 -0.590697 134 29 18
-0.230888 -0.418038 -0.590092 134 29 18
-0.231570 -0.418089 -0.589487 134 29 18
-0.232252 -0.418140 -0.588882 133 28 17
-0.232935 -0.418191 -0.588277 133 28 17
-0.233617 -0.418243 -0.587672 133 28 19
-0.234299 -0.418294 -0.587067 133 28 19
-0.234981 -0.418345 -0.586462 132 27 18
-0.235663 -0.418397 -0.585857 132 27 18
-0.236345 -0.418448 -0.585252 130 25 18
-0.237028 -0.418499 -0.584647 129 24 17
-0.237710 -0.418550 -0.584042 125 26 17
-0.238392 -0.418602 -0.583437 125 26 17
-0.239074 -0.418653 -0.582832 123 24 15
-0.239756 -0.418704 -0.582227 124 25 16
-0.240439 -0.418756 -0.581622 122 25 15
-0.241121 -0.418807 -0.581017 122 25 15
-0.241803 -0.418858 -0.580413 120 25 17
-0.242485 -0.418909 -0.579808 120 25 17
-0.243620 -0.418307 -0.579835 118 24 16
-0.244301 -0.418358 -0.579231 118 24 16
-0.244982 -0.418409 -0.578627 115 27 17
-0.245663 -0.418460 -0.578023 115 27 17
-0.246792 -0.417857 -0.578055 114 28 17
-0.247471 -0.417908 -0.577453 115 29 18
-0.248596 -0.417305 -0.577488 115 29 18
-0.249275 -0.417356 -0.576887 116 30 19
-0.250396 -0.416752 -0.576926 116 30 19
-0.251073 -0.416803 -0.576325 117 31 20
-0.251751 -0.416854 -0.575725 119 33 22
-0.252867 -0.416249 -0.575768 119 33 22
-0.253543 -0.416300 -0.575168 120 32 22
-0.254219 -0.416351 -0.574569 121 33 23
-0.255330 -0.415747 -0.574617 122 34 24
-0.256005 -0.415797 -0.574018 125 37 27
-0.257113 -0.415192 -0.574069 129 41 31
-0.258218 -0.414587 -0.574122 132 44 34
-0.258891 -0.414638 -0.573526 133 50 40
-0.259992 -0.414033 -0.573583 135 52 42
-0.260663 -0.414083 -0.572987 138 58 54
-0.261761 -0.413478 -0.573047 143 63 59
-0.262431 -0.413528 -0.572453 139 67 60
-0.263101 -0.413578 -0.571859 139 67 60
-0.264194 -0.412972 -0.571923 148 84 77
-0.264863 -0.413023 -0.571330 157 93 86
-0.265531 -0.413073 -0.570737 163 108 103
-0.266619 -0.412467 -0.570806 167 112 107
-0.267287 -0.412517 -0.570214 157 98 89
-0.267954 -0.412567 -0.569622 130 71 62
-0.268622 -0.412617 -0.569030 134 59 51
-0.269289 -0.412667 -0.568438 133 58 50
-0.269956 -0.412717 -0.567847 131 71 58
-0.271036 -0.412110 -0.567923 152 92 79
-0.271702 -0.412161 -0.567332 154 113 94
-0.272368 -0.412211 -0.566741 166 125 106
-0.273443 -0.411603 -0.566822 171 145 134
-0.274108 -0.411653 -0.566232 173 147 136
-0.274773 -0.411703 -0.565642 170 155 143
-0.275842 -0.411096 -0.565727 167 152 140
-0.276506 -0.411145 -0.565139 166 144 136
-0.277170 -0.411195 -0.564550 139 117 109
-0.277833 -0.411245 -0.563962 140 105 100
-0.278497 -0.411295 -0.563373 134 99 94
-0.279161 -0.411345 -0.562784 122 75 74
-0.279824 -0.411395 -0.562196 116 69 68
-0.280488 -0.411445 -0.561607 130 98 94
-0.281152 -0.411495 -0.561019 142 110 106
-0.281816 -0.411545 -0.560430 150 127 122
-0.282872 -0.410936 -0.560527 152 129 124
-0.283534 -0.410986 -0.559939 157 143 135
-0.284197 -0.411036 -0.559352 171 157 149
-0.285248 -0.410426 -0.559453 173 162 153
-0.285909 -0.410476 -0.558867 174 163 154
-0.286956 -0.409867 -0.558971 162 136 132
-0.288001 -0.409257 -0.559078 154 128 124
-0.289044 -0.408648 -0.559187 130 95 90
-0.289701 -0.408697 -0.558604 121 86 81
-0.290740 -0.408087 -0.558716 138 102 94
-0.291777 -0.407477 -0.558830 143 107 99
-0.292810 -0.406866 -0.558947 159 133 122
-0.293464 -0.406916 -0.558367 165 139 128
-0.294495 -0.406305 -0.558487 158 134 122
-0.295147 -0.406354 -0.557908 162 138 126
-0.295800 -0.406403 -0.557329 158 122 112
-0.296452 -0.406452 -0.556750 136 100 90
-0.297105 -0.406501 -0.556172 127 84 75
-0.169423 -0.432582 -0.613949 73 34 32
-0.170141 -0.432636 -0.613313 67 28 26
-0.171413 -0.432045 -0.613219 69 25 25
-0.172129 -0.432098 -0.612584 71 27 27
-0.172846 -0.432152 -0.611948 76 29 28
-0.173563 -0.432206 -0.611312 76 29 28
-0.174829 -0.431615 -0.611224 77 30 29
-0.175544 -0.431668 -0.610590 77 30 29
-0.176806 -0.431077 -0.610505 80 31 30
-0.177521 -0.431130 -0.609872 80 31 30
-0.178235 -0.431184 -0.609238 80 31 30
-0.179492 -0.430592 -0.609158 81 32 31
-0.179663 -0.431291 -0.607972 82 33 32
-0.180377 -0.431345 -0.607338 83 34 33
-0.181092 -0.431399 -0.606705 82 34 30
-0.182344 -0.430806 -0.606629 82 34 30
-0.183057 -0.430860 -0.605997 82 34 30
-0.181627 -0.433499 -0.603127 83 35 31
-0.182879 -0.432907 -0.603051 84 34 29
-0.183596 -0.432961 -0.602415 86 36 31
-0.184845 -0.432368 -0.602342 89 36 32
-0.185560 -0.432421 -0.601708 92 39 35
-0.192630 -0.424712 -0.607852 94 39 34
-0.193859 -0.424117 -0.607797 96 41 36
-0.195086 -0.423523 -0.607744 103 44 37
-0.195784 -0.423575 -0.607125 104 45 38
-0.197007 -0.422981 -0.607075 106 45 37
-0.197704 -0.423033 -0.606457 108 47 39
-0.198401 -0.423085 -0.605839 113 48 39
-0.199619 -0.422490 -0.605793 114 49 40
-0.200834 -0.421895 -0.605750 119 47 38
-0.201529 -0.421947 -0.605134 121 49 40
-0.202223 -0.421999 -0.604518 128 48 40
-0.202918 -0.422051 -0.603902 130 50 42
-0.204127 -0.421456 -0.603864 146 59 46
-0.204820 -0.421508 -0.603250 152 65 52
-0.205513 -0.421560 -0.602635 153 56 42
-0.206718 -0.420964 -0.602601 147 50 36
-0.207410 -0.421016 -0.601988 152 47 36
-0.208610 -0.420419 -0.601958 155 50 39
-0.209301 -0.420471 -0.601345 157 49 36
-0.210498 -0.419874 -0.601318 155 47 34
-0.211188 -0.419926 -0.600707 153 43 29
-0.211877 -0.419978 -0.600095 153 43 29
-0.212567 -0.420030 -0.599484 153 43 29
-0.213758 -0.419433 -0.599462 151 41 27
-0.214446 -0.419484 -0.598852 151 41 27
-0.215134 -0.419536 -0.598241 147 37 23
-0.216320 -0.418938 -0.598224 147 37 25
-0.217504 -0.418341 -0.598209 144 34 22
-0.218190 -0.418392 -0.597601 145 37 24
-0.218875 -0.418444 -0.596993 143 35 22
-0.220054 -0.417846 -0.596982 142 34 21
-0.220739 -0.417897 -0.596375 140 32 19
-0.221423 -0.417949 -0.595768 138 32 19
-0.222108 -0.418000 -0.595161 138 32 19
-0.223280 -0.417401 -0.595156 138 32 19
-0.223964 -0.417453 -0.594550 138 32 19
-0.224647 -0.417504 -0.593944 138 32 19
-0.225814 -0.416905 -0.593943 137 31 18
-0.226497 -0.416957 -0.593338 138 31 21
-0.227179 -0.417008 -0.592733 138 31 21
-0.228341 -0.416408 -0.592737 138 31 21
-0.229022 -0.416460 -0.592133 137 30 20
-0.229703 -0.416511 -0.591529 136 29 19
-0.230861 -0.415911 -0.591537 136 29 19
-0.231540 -0.415962 -0.590934 136 29 19
-0.232220 -0.416013 -0.590331 136 29 19
-0.232900 -0.416064 -0.589729 135 28 18
-0.233580 -0.416116 -0.589126 134 27 17
-0.234259 -0.416167 -0.588523 135 28 18
-0.234939 -0.416218 -0.587920 135 28 18
-0.235619 -0.416269 -0.587318 135 28 20
-0.236299 -0.416320 -0.586715 134 27 19
-0.236978 -0.416371 -0.586112 133 26 18
-0.237658 -0.416422 -0.585509 131 24 16
-0.238338 -0.416473 -0.584907 132 27 18
-0.239017 -0.416524 -0.584304 132 27 18
-0.239697 -0.416575 -0.583701 132 27 18
-0.240377 -0.416627 -0.583098 130 25 16
-0.241057 -0.416678 -0.582495 129 24 15
-0.241736 -0.416729 -0.581893 128 23 14
-0.242416 -0.416780 -0.581290 128 23 16
-0.243096 -0.416831 -0.580687 128 23 16
-0.244229 -0.416229 -0.580717 125 23 15
-0.244907 -0.416280 -0.580115 123 21 13
-0.245586 -0.416331 -0.579514 122 23 14
-0.246264 -0.416382 -0.578912 122 23 14
-0.247391 -0.415780 -0.578947 119 25 14
-0.248068 -0.415831 -0.578347 120 26 15
-0.249191 -0.415229 -0.578385 119 25 17
-0.249867 -0.415280 -0.577786 120 26 18
-0.250987 -0.414677 -0.577828 118 27 18
-0.251661 -0.414728 -0.577229 119 28 19
-0.252336 -0.414779 -0.576631 119 28 19
-0.253451 -0.414176 -0.576677 119 28 19
-0.254124 -0.414226 -0.576080 118 27 18
-0.254798 -0.414277 -0.575483 119 28 19
-0.255907 -0.413674 -0.575533 120 29 20
-0.256580 -0.413724 -0.574937 124 33 24
-0.257686 -0.413121 -0.574991 126 35 26
-0.258357 -0.413171 -0.574396 130 39 30
-0.259028 -0.413221 -0.573801 133 42 33
-0.260129 -0.412617 -0.573859 136 45 36
-0.260799 -0.412668 -0.573265 139 48 41
-0.261896 -0.412064 -0.573326 142 51 44
-0.262564 -0.412114 -0.572733 141 54 48
-0.263233 -0.412164 -0.572140 139 52 46
-0.264325 -0.411559 -0.572206 139 59 53
-0.264993 -0.411610 -0.571614 139 59 53
-0.265660 -0.411660 -0.571023 141 66 60
-0.266748 -0.411055 -0.571093 143 68 62
-0.267414 -0.411105 -0.570502 138 58 50
-0.268080 -0.411155 -0.569911 137 57 49
-0.268746 -0.411205 -0.569321 136 53 41
-0.269827 -0.410600 -0.569396 136 53 41
-0.270492 -0.410650 -0.568807 140 70 56
-0.271570 -0.410044 -0.568886 162 92 78
-0.272233 -0.410094 -0.568297 164 113 97
-0.272897 -0.410144 -0.567708 173 122 106
-0.273561 -0.410194 -0.567120 171 135 125
-0.274225 -0.410243 -0.566531 169 133 123
-0.274888 -0.410293 -0.565943 166 137 127
-0.275957 -0.409687 -0.566029 157 128 118
-0.276620 -0.409737 -0.565442 150 113 108
-0.277282 -0.409787 -0.564854 135 98 93
-0.277945 -0.409836 -0.564267 143 104 100
-0.278607 -0.409886 -0.563679 139 100 96
-0.279270 -0.409936 -0.563092 140 99 93
-0.279932 -0.409986 -0.562504 148 107 101
-0.280595 -0.410036 -0.561917 145 119 115
-0.281652 -0.409428 -0.562013 163 137 133
-0.282314 -0.409478 -0.561427 169 158 151
-0.282975 -0.409528 -0.560841 167 156 149
-0.283636 -0.409578 -0.560254 165 158 148
-0.284297 -0.409627 -0.559668 165 158 148
-0.285348 -0.409019 -0.559771 163 144 138
-0.286008 -0.409069 -0.559186 138 119 113
-0.287055 -0.408461 -0.559292 142 114 111
-0.288099 -0.407853 -0.559400 145 117 114
-0.289141 -0.407244 -0.559511 140 110 103
-0.289797 -0.407294 -0.558929 147 117 110
-0.290835 -0.406685 -0.559043 145 123 113
-0.291871 -0.406076 -0.559159 160 138 128
-0.292525 -0.406125 -0.558579 176 163 152
-0.293178 -0.406174 -0.557999 172 159 148
-0.294209 -0.405565 -0.558120 167 151 144
-0.294862 -0.405614 -0.557541 159 143 136
-0.295514 -0.405663 -0.556962 152 129 124
-0.296167 -0.405712 -0.556384 147 124 119
-0.296820 -0.405761 -0.555805 159 134 125
-0.298214 -0.404493 -0.556638 164 139 130
-0.299233 -0.403882 -0.556768 163 127 115
-0.299882 -0.403931 -0.556193 151 115 103
-0.300531 -0.403980 -0.555617 128 71 62
-0.301180 -0.404029 -0.555042 89 32 23
-0.301829 -0.404078 -0.554466 113 56 47
-0.302478 -0.404126 -0.553891 136 79 70
-0.303127 -0.404175 -0.553315 126 77 65
-0.303776 -0.404224 -0.552740 105 56 44
-0.304425 -0.404273 -0.552164 106 49 40
-0.305074 -0.404322 -0.551589 93 36 27
-0.305723 -0.404370 -0.551013 94 34 23
-0.306372 -0.404419 -0.550438 94 34 23
-0.307021 -0.404468 -0.549862 91 31 20
-0.169109 -0.431768 -0.613546 74 32 31
-0.169827 -0.431822 -0.612909 68 26 25
-0.171100 -0.431232 -0.612816 68 24 24
-0.171816 -0.431286 -0.612181 70 26 26
-0.172533 -0.431340 -0.611545 73 26 25
-0.173250 -0.431394 -0.610910 73 26 25
-0.174516 -0.430804 -0.610822 74 27 26
-0.175231 -0.430857 -0.610188 76 29 28
-0.175947 -0.430911 -0.609553 79 30 29
-0.177208 -0.430321 -0.609470 79 30 29
-0.177923 -0.430374 -0.608837 79 31 27
-0.179180 -0.429784 -0.608757 80 32 28
-0.179351 -0.430482 -0.607570 80 32 28
-0.180606 -0.429891 -0.607493 81 33 29
-0.181319 -0.429944 -0.606861 80 32 28
-0.182032 -0.429998 -0.606228 81 33 29
-0.183283 -0.429407 -0.606155 81 33 29
-0.181849 -0.432040 -0.603283 82 34 30
-0.182566 -0.432094 -0.602648 83 33 28
-0.183817 -0.431503 -0.602575 83 33 28
-0.184532 -0.431557 -0.601940 86 33 29
-0.185779 -0.430965 -0.601870 88 35 31
-0.186493 -0.431019 -0.601237 90 35 32
-0.193553 -0.423325 -0.607404 91 36 33
-0.194781 -0.422731 -0.607351 95 37 33
-0.195479 -0.422784 -0.606732 98 40 36
-0.196702 -0.422191 -0.606683 100 41 34
-0.197923 -0.421597 -0.606636 102 43 36
-0.198619 -0.421649 -0.606019 105 44 36
-0.199836 -0.421055 -0.605975 105 44 36
-0.201051 -0.420461 -0.605934 110 46 39
-0.201744 -0.420513 -0.605319 111 47 40
-0.202437 -0.420565 -0.604704 118 47 40
-0.203130 -0.420618 -0.604090 122 51 44
-0.204339 -0.420023 -0.604054 139 62 53
-0.205031 -0.420075 -0.603440 142 65 56
-0.205723 -0.420127 -0.602826 142 59 47
-0.206927 -0.419532 -0.602794 139 56 44
-0.207618 -0.419584 -0.602182 148 55 42
-0.208818 -0.418989 -0.602153 149 56 43
-0.209507 -0.419041 -0.601542 152 53 40
-0.210703 -0.418445 -0.601517 150 51 38
-0.211392 -0.418497 -0.600906 152 48 34
-0.212080 -0.418549 -0.600296 151 47 33
-0.212768 -0.418601 -0.599686 155 47 32
-0.213959 -0.418005 -0.599666 153 45 30
-0.214646 -0.418056 -0.599057 153 45 30
-0.215333 -0.418108 -0.598447 152 44 29
-0.216518 -0.417512 -0.598432 151 41 27
-0.217701 -0.416915 -0.598419 150 40 26
-0.218385 -0.416967 -0.597812 150 40 28
-0.219070 -0.417018 -0.597204 147 37 25
-0.220248 -0.416421 -0.597196 146 38 25
-0.220931 -0.416473 -0.596590 144 36 23
-0.221615 -0.416524 -0.595984 144 36 23
-0.222298 -0.416575 -0.595378 143 35 22
-0.223470 -0.415978 -0.595374 141 35 22
-0.224152 -0.416029 -0.594769 141 35 22
-0.224834 -0.416081 -0.594164 141 35 22
-0.226001 -0.415483 -0.594165 138 32 19
-0.226682 -0.415534 -0.593562 138 32 19
-0.227363 -0.415585 -0.592958 140 34 21
-0.228524 -0.414987 -0.592963 138 32 19
-0.229204 -0.415038 -0.592360 138 32 19
-0.229884 -0.415090 -0.591758 137 30 20
-0.231041 -0.414491 -0.591767 137 30 20
-0.231719 -0.414542 -0.591166 137 30 20
-0.232398 -0.414593 -0.590564 137 30 20
-0.233550 -0.413994 -0.590578 136 29 19
-0.234227 -0.414045 -0.589978 136 29 19
-0.234904 -0.414096 -0.589377 136 29 19
-0.235581 -0.414147 -0.588776 136 29 19
-0.236259 -0.414198 -0.588176 136 29 21
-0.236936 -0.414249 -0.587575 136 29 21
-0.237613 -0.414300 -0.586975 135 28 20
-0.238290 -0.414351 -0.586374 135 28 20
-0.238968 -0.414402 -0.585774 135 28 20
-0.234559 -0.421610 -0.578291 134 27 19
-0.235711 -0.421011 -0.578305 135 28 18
-0.236400 -0.421063 -0.577693 135 28 18
-0.237549 -0.420464 -0.577711 135 28 18
-0.238237 -0.420515 -0.577100 131 24 14
-0.239382 -0.419916 -0.577121 131 24 14
-0.240069 -0.419968 -0.576512 130 23 13
-0.241210 -0.419368 -0.576536 131 24 16
-0.242348 -0.418768 -0.576562 129 22 14
-0.243033 -0.418820 -0.575955 129 22 14
-0.243717 -0.418871 -0.575348 129 22 14
-0.244851 -0.418271 -0.575378 128 21 13
-0.245534 -0.418322 -0.574772 128 21 13
-0.246664 -0.417722 -0.574806 127 22 15
-0.247346 -0.417773 -0.574201 127 22 15
-0.248472 -0.417173 -0.574238 125 23 15
-0.249153 -0.417224 -0.573634 125 23 15
-0.252924 -0.412709 -0.577540 123 26 16
-0.251395 -0.416021 -0.573717 122 25 15
-0.252074 -0.416072 -0.573116 122 25 15
-0.252752 -0.416123 -0.572514 123 26 16
-0.253431 -0.416175 -0.571912 124 27 17
-0.254109 -0.416226 -0.571311 128 31 21
-0.255222 -0.415624 -0.571360 130 32 25
-0.255899 -0.415675 -0.570759 132 34 27
-0.256576 -0.415726 -0.570159 136 38 31
-0.257684 -0.415123 -0.570212 138 40 33
-0.258360 -0.415174 -0.569613 137 42 34
-0.259036 -0.415225 -0.569013 141 46 38
-0.259712 -0.415276 -0.568414 139 48 41
-0.263366 -0.410753 -0.572423 139 48 41
-0.264458 -0.410149 -0.572491 136 48 40
-0.265124 -0.410200 -0.571900 137 49 41
-0.265790 -0.410250 -0.571309 141 55 46
-0.266877 -0.409646 -0.571381 139 53 44
-0.267542 -0.409696 -0.570791 138 52 43
-0.268207 -0.409746 -0.570202 137 51 42
-0.268872 -0.409796 -0.569612 136 51 37
-0.269952 -0.409192 -0.569690 137 52 38
-0.270616 -0.409242 -0.569101 141 62 49
-0.271693 -0.408637 -0.569182 147 68 55
-0.272355 -0.408687 -0.568594 147 77 63
-0.273018 -0.408737 -0.568007 151 81 67
-0.273680 -0.408787 -0.567419 153 96 87
-0.274343 -0.408836 -0.566832 164 107 98
-0.275005 -0.408886 -0.566244 156 108 100
-0.276073 -0.408281 -0.566333 159 111 103
-0.276735 -0.408331 -0.565746 144 96 92
-0.277396 -0.408381 -0.565160 143 95 91
-0.278057 -0.408430 -0.564574 144 103 97
-0.278718 -0.408480 -0.563987 144 103 97
-0.279380 -0.408530 -0.563401 145 107 100
-0.280041 -0.408579 -0.562815 151 113 106
-0.280702 -0.408629 -0.562228 149 126 121
-0.281759 -0.408023 -0.562326 175 152 147
-0.282419 -0.408073 -0.561741 170 159 152
-0.283079 -0.408122 -0.561156 169 158 151
-0.283739 -0.408172 -0.560571 164 155 146
-0.284399 -0.408222 -0.559985 157 148 139
-0.285449 -0.407615 -0.560090 140 117 112
-0.286108 -0.407665 -0.559506 114 91 86
-0.287154 -0.407058 -0.559614 125 97 96
-0.288197 -0.406451 -0.559724 143 115 114
-0.289239 -0.405844 -0.559837 144 123 118
-0.289894 -0.405893 -0.559256 157 136 131
-0.290931 -0.405286 -0.559371 155 141 133
-0.291966 -0.404678 -0.559489 171 157 149
-0.292619 -0.404727 -0.558911 171 162 153
-0.293271 -0.404776 -0.558332 169 160 151
-0.293924 -0.404825 -0.557753 164 153 146
-0.294577 -0.404874 -0.557174 158 147 140
-0.295229 -0.404923 -0.556596 161 147 143
-0.295882 -0.404972 -0.556017 165 151 147
-0.296534 -0.405022 -0.555438 172 158 150
-0.297930 -0.403756 -0.556272 170 156 148
-0.298950 -0.403147 -0.556403 160 134 121
-0.299599 -0.403196 -0.555828 134 108 95
-0.300248 -0.403244 -0.555252 107 64 55
-0.300897 -0.403293 -0.554677 125 82 73
-0.301545 -0.403342 -0.554101 160 124 116
-0.302194 -0.403391 -0.553526 163 127 119
-0.302843 -0.403440 -0.552950 158 124 116
-0.303492 -0.403488 -0.552375 149 115 107
-0.304141 -0.403537 -0.551800 127 81 75
-0.304790 -0.403586 -0.551224 115 69 63
-0.305439 -0.403635 -0.550649 121 69 58
-0.306088 -0.403684 -0.550073 113 61 50
-0.306737 -0.403732 -0.549498 116 60 48
-0.307386 -0.403781 -0.548922 96 40 28
-0.308035 -0.403830 -0.548347 96 36 21
-0.309035 -0.403220 -0.548495 95 35 20
-0.168795 -0.430954 -0.613142 73 31 30
-0.169513 -0.431008 -0.612506 68 26 25
-0.170231 -0.431062 -0.611869 67 23 21
-0.170949 -0.431116 -0.611232 68 24 22
-0.171667 -0.431170 -0.610596 72 25 24
-0.172936 -0.430582 -0.610507 73 26 25
-0.174203 -0.429993 -0.610420 73 26 25
-0.174919 -0.430046 -0.609786 74 27 26
-0.177278 -0.428172 -0.610804 78 30 26
-0.177989 -0.428225 -0.610173 78 30 26
-0.178701 -0.428279 -0.609542 78 30 26
-0.178869 -0.428975 -0.608357 78 30 26
-0.179582 -0.429029 -0.607724 79 31 27
-0.180295 -0.429083 -0.607092 80 32 28
-0.181548 -0.428493 -0.607017 79 31 27
-0.180103 -0.431120 -0.604152 80 32 28
-0.180820 -0.431174 -0.603516 81 31 28
-0.182073 -0.430584 -0.603441 82 32 29
-0.182788 -0.430638 -0.602807 84 31 29
-0.183504 -0.430692 -0.602173 85 32 30
-0.184752 -0.430102 -0.602102 85 32 28
-0.185467 -0.430155 -0.601469 85 32 28
-0.186711 -0.429565 -0.601402 87 32 29
-0.187424 -0.429619 -0.600770 89 34 31
-0.194475 -0.421940 -0.606959 92 34 32
-0.189377 -0.429081 -0.600075 93 35 33
-0.196397 -0.421401 -0.606291 95 35 31
-0.197619 -0.420808 -0.606245 96 36 32
-0.198315 -0.420861 -0.605628 97 37 33
-0.199532 -0.420268 -0.605585 98 38 34
-0.200748 -0.419675 -0.605544 102 41 35
-0.201960 -0.419083 -0.605506 103 42 36
-0.202652 -0.419135 -0.604892 107 43 38
-0.203344 -0.419187 -0.604278 112 48 43
-0.204552 -0.418593 -0.604244 124 55 50
-0.205243 -0.418645 -0.603631 128 59 54
-0.205934 -0.418697 -0.603019 127 55 46
-0.207137 -0.418104 -0.602989 128 56 47
-0.207826 -0.418155 -0.602377 138 59 48
-0.209026 -0.417562 -0.602351 138 59 48
-0.209714 -0.417613 -0.601740 145 59 48
-0.210910 -0.417019 -0.601717 143 57 46
-0.211597 -0.417071 -0.601108 148 54 43
-0.212284 -0.417122 -0.600498 147 53 42
-0.212971 -0.417174 -0.599889 148 49 36
-0.214160 -0.416579 -0.599871 148 49 36
-0.214846 -0.416631 -0.599263 152 47 36
-0.215532 -0.416683 -0.598655 151 46 35
-0.216717 -0.416088 -0.598641 151 45 32
-0.217899 -0.415492 -0.598630 152 46 33
-0.218582 -0.415544 -0.598024 154 46 33
-0.219266 -0.415595 -0.597418 150 42 29
-0.220443 -0.415000 -0.597411 150 42 29
-0.221125 -0.415051 -0.596806 149 41 28
-0.221807 -0.415102 -0.596201 147 39 26
-0.222489 -0.415154 -0.595596 147 39 26
-0.223660 -0.414557 -0.595594 145 37 24
-0.224341 -0.414609 -0.594990 144 36 23
-0.225022 -0.414660 -0.594387 144 36 23
-0.226188 -0.414064 -0.594389 144 36 23
-0.226868 -0.414115 -0.593787 144 36 23
-0.227548 -0.414166 -0.593184 143 35 22
-0.228709 -0.413569 -0.593191 142 34 21
-0.229387 -0.413620 -0.592589 142 34 21
-0.230066 -0.413671 -0.591988 140 32 19
-0.231222 -0.413074 -0.591999 140 32 19
-0.231899 -0.413125 -0.591399 138 32 19
-0.232576 -0.413176 -0.590798 138 32 19
-0.233728 -0.412578 -0.590814 137 31 18
-0.234404 -0.412629 -0.590215 137 31 18
-0.235080 -0.412680 -0.589615 137 31 18
-0.235756 -0.412731 -0.589016 137 31 18
-0.236901 -0.412133 -0.589037 137 30 20
-0.237576 -0.412183 -0.588439 138 31 21
-0.238250 -0.412234 -0.587840 137 30 20
-0.238925 -0.412285 -0.587242 137 30 20
-0.239600 -0.412336 -0.586643 139 30 20
-0.240275 -0.412386 -0.586045 138 29 19
-0.235871 -0.419580 -0.578545 139 30 20
-0.237020 -0.418982 -0.578563 138 29 19
-0.237707 -0.419034 -0.577954 139 29 17
-0.238394 -0.419086 -0.577344 139 29 17
-0.239538 -0.418488 -0.577367 138 28 16
-0.240224 -0.418539 -0.576759 138 28 16
-0.241364 -0.417941 -0.576784 138 28 16
-0.242049 -0.417992 -0.576177 136 26 14
-0.242733 -0.418044 -0.575570 137 26 17
-0.243869 -0.417445 -0.575600 138 27 18
-0.245001 -0.416846 -0.575633 136 25 16
-0.245684 -0.416897 -0.575028 134 23 14
-0.246813 -0.416298 -0.575063 135 21 13
-0.247494 -0.416349 -0.574459 135 21 13
-0.248619 -0.415750 -0.574498 134 23 14
-0.249299 -0.415801 -0.573895 132 21 12
-0.250420 -0.415201 -0.573938 131 22 14
-0.251540 -0.414601 -0.573982 131 22 14
-0.252217 -0.414652 -0.573381 129 22 14
-0.252894 -0.414703 -0.572781 129 22 14
-0.253571 -0.414754 -0.572180 132 27 18
-0.254249 -0.414805 -0.571580 134 29 20
-0.255360 -0.414205 -0.571630 134 29 20
-0.256036 -0.414256 -0.571031 136 31 22
-0.256713 -0.414306 -0.570431 140 35 28
-0.257389 -0.414357 -0.569832 141 36 29
-0.258494 -0.413756 -0.569888 140 38 30
-0.259169 -0.413807 -0.569290 144 42 34
-0.259844 -0.413858 -0.568692 141 46 38
-0.260945 -0.413256 -0.568752 137 42 34
-0.262043 -0.412655 -0.568815 133 42 33
-0.262715 -0.412705 -0.568219 134 43 34
-0.263388 -0.412756 -0.567623 135 49 38
-0.264481 -0.412154 -0.567690 136 50 39
-0.265152 -0.412205 -0.567095 136 50 39
-0.265823 -0.412255 -0.566500 136 50 39
-0.266494 -0.412306 -0.565905 136 49 34
-0.270078 -0.407787 -0.569984 136 49 34
-0.271155 -0.407184 -0.570066 139 54 38
-0.271817 -0.407233 -0.569479 141 56 40
-0.272478 -0.407283 -0.568893 140 58 43
-0.273550 -0.406680 -0.568979 141 59 44
-0.274210 -0.406729 -0.568394 138 56 46
-0.274870 -0.406779 -0.567808 147 65 55
-0.275530 -0.406828 -0.567223 145 73 64
-0.276190 -0.406878 -0.566638 149 77 68
-0.276851 -0.406928 -0.566052 137 77 66
-0.277914 -0.406324 -0.566146 151 91 80
-0.278573 -0.406373 -0.565562 151 101 94
-0.279232 -0.406423 -0.564978 151 101 94
-0.279891 -0.406472 -0.564393 148 105 98
-0.280549 -0.406522 -0.563809 155 112 105
-0.281208 -0.406571 -0.563225 157 127 120
-0.281867 -0.406621 -0.562641 174 144 137
-0.282921 -0.406016 -0.562743 176 154 146
-0.283579 -0.406065 -0.562160 160 138 130
-0.284236 -0.406115 -0.561577 165 144 139
-0.284894 -0.406164 -0.560994 157 136 131
-0.285942 -0.405559 -0.561101 147 116 114
-0.286598 -0.405608 -0.560519 134 103 101
-0.287642 -0.405003 -0.560630 143 115 112
-0.288297 -0.405052 -0.560049 163 135 132
-0.289337 -0.404446 -0.560163 169 158 153
-0.289991 -0.404495 -0.559584 173 162 157
-0.291028 -0.403889 -0.559701 168 161 153
-0.292062 -0.403283 -0.559821 167 160 152
-0.292714 -0.403332 -0.559243 167 160 152
-0.293365 -0.403381 -0.558666 166 159 151
-0.294017 -0.403430 -0.558088 161 154 146
-0.294668 -0.403479 -0.557510 161 154 146
-0.295319 -0.403528 -0.556933 165 156 151
-0.295971 -0.403577 -0.556355 167 158 153
-0.296622 -0.403626 -0.555777 168 159 152
-0.297645 -0.403019 -0.555907 167 158 151
-0.298666 -0.402411 -0.556038 152 132 124
-0.299315 -0.402460 -0.555463 124 104 96
-0.299964 -0.402509 -0.554888 137 112 103
-0.300613 -0.402558 -0.554312 168 143 134
-0.301262 -0.402606 -0.553737 171 153 144
-0.301911 -0.402655 -0.553161 167 149 140
-0.302560 -0.402704 -0.552586 162 132 127
-0.303209 -0.402753 -0.552010 144 114 109
-0.303858 -0.402802 -0.551435 128 90 83
-0.304506 -0.402850 -0.550859 145 107 100
-0.305155 -0.402899 -0.550284 149 111 100
-0.305804 -0.402948 -0.549708 154 116 105
-0.306453 -0.402997 -0.549133 156 116 103
-0.307102 -0.403046 -0.548557 138 98 85
-0.307751 -0.403094 -0.547982 144 88 74
-0.308752 -0.402486 -0.548131 105 49 35
-0.309400 -0.402534 -0.547557 109 35 22
-0.310048 -0.402583 -0.546982 108 34 21
-0.310695 -0.402632 -0.546408 106 32 19
-0.311343 -0.402680 -0.545834 104 30 17
-0.168481 -0.430140 -0.612739 70 28 27
-0.169199 -0.430194 -0.612102 68 26 25
-0.169917 -0.430248 -0.611465 68 24 22
-0.170635 -0.430302 -0.610829 68 24 22
-0.171353 -0.430356 -0.610192 70 23 22
-0.172071 -0.430410 -0.609556 71 24 23
-0.173340 -0.429823 -0.609469 71 24 23
-0.174056 -0.429877 -0.608833 73 26 25
-0.176967 -0.427365 -0.610404 74 28 24
-0.177678 -0.427418 -0.609773 74 28 24
-0.178390 -0.427472 -0.609142 74 28 24
-0.179102 -0.427525 -0.608511 76 30 26
-0.179270 -0.428221 -0.607324 78 30 26
-0.180525 -0.427632 -0.607248 79 31 27
-0.181237 -0.427686 -0.606617 80 30 27
-0.179790 -0.430308 -0.603749 80 30 27
-0.181045 -0.429720 -0.603674 80 30 27
-0.181760 -0.429773 -0.603039 81 31 28
-0.183012 -0.429185 -0.602967 83 30 28
-0.183726 -0.429239 -0.602334 84 31 29
-0.184440 -0.429292 -0.601701 85 30 29
-0.185687 -0.428703 -0.601633 85 30 29
-0.186400 -0.428757 -0.601001 88 30 28
-0.187643 -0.428168 -0.600937 89 31 29
-0.188354 -0.428221 -0.600306 91 31 27
-0.189594 -0.427632 -0.600245 91 31 27
-0.190304 -0.427685 -0.599615 92 30 27
-0.197315 -0.420020 -0.605854 94 32 29
-0.198010 -0.420072 -0.605237 95 33 30
-0.199229 -0.419481 -0.605195 95 33 30
-0.200444 -0.418890 -0.605155 97 36 30
-0.201658 -0.418298 -0.605117 98 37 31
-0.202869 -0.417706 -0.605081 101 37 32
-0.203560 -0.417758 -0.604468 104 40 35
-0.204767 -0.417166 -0.604436 107 41 37
-0.205456 -0.417218 -0.603824 111 45 41
-0.206146 -0.417270 -0.603213 116 47 42
-0.207348 -0.416678 -0.603185 118 49 44
-0.208036 -0.416730 -0.602574 126 54 47
-0.209235 -0.416137 -0.602549 127 55 48
-0.209922 -0.416189 -0.601940 131 54 47
-0.211117 -0.415596 -0.601918 131 54 47
-0.211803 -0.415647 -0.601310 136 52 45
-0.212489 -0.415699 -0.600702 139 55 48
-0.213175 -0.415750 -0.600094 142 51 42
-0.214363 -0.415157 -0.600078 144 53 44
-0.215048 -0.415209 -0.599470 147 53 40
-0.215733 -0.415260 -0.598863 147 53 40
-0.216917 -0.414666 -0.598852 148 49 38
-0.218098 -0.414073 -0.598842 150 51 40
-0.218780 -0.414124 -0.598237 153 51 39
-0.219462 -0.414175 -0.597632 149 47 35
-0.220639 -0.413581 -0.597627 151 47 33
-0.221320 -0.413632 -0.597023 151 47 33
-0.222001 -0.413683 -0.596419 150 44 31
-0.222682 -0.413734 -0.595815 148 42 29
-0.223852 -0.413140 -0.595816 145 39 26
-0.224531 -0.413191 -0.595213 144 38 25
-0.225211 -0.413242 -0.594610 146 38 25
-0.226377 -0.412647 -0.594615 145 37 24
-0.227055 -0.412698 -0.594013 146 36 24
-0.227734 -0.412749 -0.593411 146 36 24
-0.228894 -0.412153 -0.593420 145 35 21
-0.229571 -0.412204 -0.592820 145 35 21
-0.230248 -0.412255 -0.592219 143 35 20
-0.231404 -0.411659 -0.592233 143 35 20
-0.232080 -0.411710 -0.591633 143 35 22
-0.232756 -0.411761 -0.591034 142 34 21
-0.233907 -0.411165 -0.591051 141 35 22
-0.234581 -0.411216 -0.590453 140 34 21
-0.235728 -0.410619 -0.590474 140 34 21
-0.236402 -0.410670 -0.589877 140 34 21
-0.237545 -0.410073 -0.589901 140 34 21
-0.238217 -0.410124 -0.589305 140 34 21
-0.238890 -0.410174 -0.588708 142 34 21
-0.239562 -0.410225 -0.588112 140 32 19
-0.240234 -0.410275 -0.587516 141 31 19
-0.240907 -0.410326 -0.586920 141 31 19
-0.241579 -0.410376 -0.586324 141 31 19
-0.237180 -0.417555 -0.578806 140 30 18
-0.237866 -0.417607 -0.578198 143 30 19
-0.239011 -0.417010 -0.578221 143 30 19
-0.239695 -0.417062 -0.577614 142 29 18
-0.240380 -0.417113 -0.577007 142 29 18
-0.241520 -0.416516 -0.577034 142 29 18
-0.242203 -0.416568 -0.576428 139 26 15
-0.242886 -0.416619 -0.575822 140 27 16
-0.244021 -0.416022 -0.575854 141 28 17
-0.245153 -0.415424 -0.575888 140 27 16
-0.245834 -0.415475 -0.575284 139 26 15
-0.246962 -0.414877 -0.575322 141 25 15
-0.247642 -0.414928 -0.574719 141 25 15
-0.248767 -0.414330 -0.574760 141 25 15
-0.249445 -0.414381 -0.574158 138 22 12
-0.250566 -0.413783 -0.574202 138 21 14
-0.251244 -0.413834 -0.573601 138 21 14
-0.251921 -0.413885 -0.573001 136 22 14
-0.252598 -0.413936 -0.572400 138 24 16
-0.253275 -0.413987 -0.571799 138 27 18
-0.253953 -0.414037 -0.571199 138 27 18
-0.255065 -0.413438 -0.571250 138 29 19
-0.256175 -0.412839 -0.571304 140 31 21
-0.256850 -0.412890 -0.570706 142 33 23
-0.257524 -0.412941 -0.570107 143 34 24
-0.258629 -0.412341 -0.570166 142 35 27
-0.259303 -0.412392 -0.569568 144 37 29
-0.259977 -0.412442 -0.568971 142 44 37
-0.261077 -0.411842 -0.569033 137 39 32
-0.261749 -0.411893 -0.568437 129 38 29
-0.262845 -0.411293 -0.568503 131 40 31
-0.263516 -0.411343 -0.567908 131 43 35
-0.264609 -0.410742 -0.567977 135 47 39
-0.265279 -0.410793 -0.567383 135 50 36
-0.265949 -0.410843 -0.566789 135 50 36
-0.266619 -0.410894 -0.566195 135 50 34
-0.270205 -0.406384 -0.570281 134 49 33
-0.271282 -0.405783 -0.570364 137 52 36
-0.271942 -0.405832 -0.569779 137 52 36
-0.272602 -0.405882 -0.569193 137 50 37
-0.273674 -0.405280 -0.569281 139 52 39
-0.274332 -0.405329 -0.568697 138 51 38
-0.274991 -0.405379 -0.568112 139 52 39
-0.275650 -0.405428 -0.567528 142 54 44
-0.276309 -0.405478 -0.566944 142 54 44
-0.277373 -0.404875 -0.567038 141 59 49
-0.278031 -0.404925 -0.566455 140 58 48
-0.278688 -0.404974 -0.565872 141 69 60
-0.279346 -0.405023 -0.565289 154 82 73
-0.280404 -0.404420 -0.565388 154 91 81
-0.281060 -0.404470 -0.564806 162 99 89
-0.281717 -0.404519 -0.564224 167 115 106
-0.282373 -0.404568 -0.563642 167 115 106
-0.283425 -0.403965 -0.563748 160 119 111
-0.284080 -0.404014 -0.563167 147 106 98
-0.284735 -0.404063 -0.562586 153 117 109
-0.285390 -0.404112 -0.562005 155 119 111
-0.286436 -0.403508 -0.562115 149 114 109
-0.287090 -0.403558 -0.561535 148 113 108
-0.287744 -0.403607 -0.560956 147 122 115
-0.288398 -0.403656 -0.560376 168 143 136
-0.289437 -0.403051 -0.560492 178 167 160
-0.290090 -0.403100 -0.559913 178 167 160
-0.291126 -0.402496 -0.560032 168 159 152
-0.292160 -0.401891 -0.560154 166 157 150
-0.292810 -0.401939 -0.559577 165 158 150
-0.293460 -0.401988 -0.559001 166 159 151
-0.294110 -0.402037 -0.558424 166 159 151
-0.294760 -0.402086 -0.557848 170 163 155
-0.295411 -0.402135 -0.557271 171 162 155
-0.296061 -0.402184 -0.556694 158 149 142
-0.296711 -0.402233 -0.556118 160 149 144
-0.297733 -0.401627 -0.556249 162 151 146
-0.298382 -0.401676 -0.555674 147 136 129
-0.299031 -0.401725 -0.555098 146 135 128
-0.299680 -0.401773 -0.554523 170 156 148
-0.300329 -0.401822 -0.553947 171 157 149
-0.300978 -0.401871 -0.553372 173 157 150
-0.301627 -0.401920 -0.552796 171 155 148
-0.302276 -0.401968 -0.552221 160 123 120
-0.302925 -0.402017 -0.551645 134 97 94
-0.303574 -0.402066 -0.551070 130 91 87
-0.304223 -0.402115 -0.550495 140 101 97
-0.304872 -0.402164 -0.549919 138 107 98
-0.305521 -0.402212 -0.549344 170 139 130
-0.306170 -0.402261 -0.548768 165 141 129
-0.306819 -0.402310 -0.548193 164 140 128
-0.307467 -0.402359 -0.547617 173 128 117
-0.308469 -0.401751 -0.547767 129 84 73
-0.309117 -0.401800 -0.547193 112 33 22
-0.309764 -0.401849 -0.546618 114 35 24
-0.310412 -0.401898 -0.546044 115 33 18
-0.311060 -0.401946 -0.545470 113 31 16
-0.311708 -0.401995 -0.544895 106 30 18
-0.312355 -0.402044 -0.544321 105 29 17
-0.313003 -0.402092 -0.543746 99 31 21
-0.168167 -0.429327 -0.612335 69 27 26
-0.168885 -0.429381 -0.611699 68 26 25
-0.169603 -0.429435 -0.611062 67 23 23
-0.170321 -0.429489 -0.610425 67 23 23
-0.171039 -0.429543 -0.609789 70 23 22
-0.173967 -0.427037 -0.611349 69 22 21
-0.174680 -0.427091 -0.610716 70 23 22
-0.175393 -0.427145 -0.610084 72 25 24
-0.176655 -0.426558 -0.610004 73 27 23
-0.177367 -0.426612 -0.609373 74 28 24
-0.178079 -0.426665 -0.608742 74 28 24
-0.179336 -0.426078 -0.608666 76 30 26
-0.177326 -0.429334 -0.605253 78 30 26
-0.178586 -0.428747 -0.605175 78 30 26
-0.179301 -0.428801 -0.604540 79 29 26
-0.180017 -0.428855 -0.603906 79 29 26
-0.180732 -0.428909 -0.603272 82 29 27
-0.181985 -0.428322 -0.603199 83 30 28
-0.182699 -0.428375 -0.602566 84 29 28
-0.183949 -0.427788 -0.602497 85 30 29
-0.184662 -0.427841 -0.601865 85 30 29
-0.185375 -0.427895 -0.601233 85 30 29
-0.186620 -0.427307 -0.601168 87 29 27
-0.187331 -0.427361 -0.600537 88 30 28
-0.188572 -0.426773 -0.600476 90 30 26
-0.189283 -0.426826 -0.599845 90 30 26
-0.190520 -0.426238 -0.599787 91 29 26
-0.191229 -0.426291 -0.599159 92 30 27
-0.191939 -0.426345 -0.598530 94 32 29
-0.193171 -0.425756 -0.598476 95 33 30
-0.200141 -0.418104 -0.604765 94 32 29
-0.201355 -0.417514 -0.604728 95 33 30
-0.202567 -0.416923 -0.604693 98 33 31
-0.203258 -0.416975 -0.604080 99 34 32
-0.204465 -0.416385 -0.604048 102 35 34
-0.205155 -0.416437 -0.603437 105 38 37
-0.205844 -0.416488 -0.602825 107 40 39
-0.207047 -0.415898 -0.602798 109 42 41
-0.208248 -0.415306 -0.602772 113 44 41
-0.208935 -0.415358 -0.602163 115 46 43
-0.210131 -0.414767 -0.602141 120 47 43
-0.210817 -0.414818 -0.601533 123 50 46
-0.211503 -0.414870 -0.600925 127 52 46
-0.212695 -0.414278 -0.600907 129 54 48
-0.213379 -0.414330 -0.600300 129 52 43
-0.214568 -0.413738 -0.600286 131 54 45
-0.215251 -0.413789 -0.599680 137 54 42
-0.215934 -0.413840 -0.599073 137 54 42
-0.217117 -0.413248 -0.599064 145 54 45
-0.217800 -0.413299 -0.598459 146 55 46
-0.218482 -0.413351 -0.597854 149 55 44
-0.219660 -0.412758 -0.597848 147 53 42
-0.220341 -0.412809 -0.597244 150 51 40
-0.221515 -0.412216 -0.597242 150 51 40
-0.222195 -0.412267 -0.596639 149 47 35
-0.222875 -0.412318 -0.596036 148 46 34
-0.224044 -0.411725 -0.596038 148 44 30
-0.224723 -0.411776 -0.595437 144 40 26
-0.225401 -0.411827 -0.594835 145 39 26
-0.226566 -0.411233 -0.594841 144 38 25
-0.227243 -0.411284 -0.594241 146 38 25
-0.227921 -0.411335 -0.593640 145 37 24
-0.229080 -0.410741 -0.593651 146 36 22
-0.229756 -0.410791 -0.593052 146 36 22
-0.230432 -0.410842 -0.592452 145 35 21
-0.231587 -0.410248 -0.592467 145 35 21
-0.232262 -0.410298 -0.591869 145 35 21
-0.232937 -0.410349 -0.591270 144 34 20
-0.234087 -0.409754 -0.591290 145 35 21
-0.234760 -0.409805 -0.590693 145 35 21
-0.235906 -0.409210 -0.590715 144 34 22
-0.236579 -0.409260 -0.590119 145 35 23
-0.237721 -0.408665 -0.590145 144 34 22
-0.238392 -0.408715 -0.589550 144 34 22
-0.239063 -0.408766 -0.588955 146 33 22
-0.240201 -0.408170 -0.588985 145 32 21
-0.240871 -0.408220 -0.588391 145 32 21
-0.241541 -0.408271 -0.587797 145 32 21
-0.242210 -0.408321 -0.587203 145 32 21
-0.242880 -0.408371 -0.586609 143 30 19
-0.243550 -0.408422 -0.586015 143 30 19
-0.239171 -0.415587 -0.578468 145 32 21
-0.240312 -0.414992 -0.578495 145 32 21
-0.240994 -0.415043 -0.577890 145 32 21
-0.241676 -0.415094 -0.577285 145 32 21
-0.242812 -0.414498 -0.577317 141 28 17
-0.243493 -0.414550 -0.576713 143 27 17
-0.244174 -0.414601 -0.576109 144 28 18
-0.245306 -0.414005 -0.576145 144 28 18
-0.245985 -0.414056 -0.575542 144 28 18
-0.247113 -0.413459 -0.575582 144 28 18
-0.247792 -0.413510 -0.574980 144 28 18
-0.248916 -0.412913 -0.575022 143 27 17
-0.249593 -0.412964 -0.574422 142 26 16
-0.250713 -0.412367 -0.574467 142 24 15
-0.251389 -0.412418 -0.573868 143 25 16
-0.252065 -0.412469 -0.573268 143 27 17
-0.253181 -0.411871 -0.573319 144 28 18
-0.253855 -0.411922 -0.572720 144 28 18
-0.254530 -0.411973 -0.572122 143 27 17
-0.255641 -0.411375 -0.572176 141 28 17
-0.256314 -0.411426 -0.571579 145 32 21
-0.256988 -0.411476 -0.570982 143 32 23
-0.258093 -0.410878 -0.571040 143 32 23
-0.258766 -0.410929 -0.570444 143 34 24
-0.259438 -0.410979 -0.569848 145 36 26
-0.260110 -0.411030 -0.569252 141 39 31
-0.260783 -0.411080 -0.568656 138 36 28
-0.261881 -0.410481 -0.568721 130 35 27
-0.262552 -0.410532 -0.568126 133 38 30
-0.263223 -0.410582 -0.567531 131 40 31
-0.264316 -0.409983 -0.567600 134 43 34
-0.264986 -0.410034 -0.567006 132 44 34
-0.265656 -0.410084 -0.566412 135 47 37
-0.266326 -0.410134 -0.565818 134 49 35
-0.267413 -0.409535 -0.565894 131 46 32
-0.271409 -0.404384 -0.570663 134 49 35
-0.272068 -0.404434 -0.570079 135 50 36
-0.272727 -0.404483 -0.569495 136 51 37
-0.273798 -0.403883 -0.569584 135 50 36
-0.274455 -0.403932 -0.569001 136 46 34
-0.275113 -0.403981 -0.568418 134 44 32
-0.275771 -0.404031 -0.567835 138 45 34
-0.276428 -0.404080 -0.567252 139 46 35
-0.277492 -0.403479 -0.567348 139 49 37
-0.278148 -0.403528 -0.566766 139 49 37
-0.278804 -0.403578 -0.566184 138 50 40
-0.279461 -0.403627 -0.565602 138 50 40
-0.280518 -0.403025 -0.565703 142 56 47
-0.281173 -0.403074 -0.565122 143 57 48
-0.281828 -0.403124 -0.564541 147 67 59
-0.282484 -0.403173 -0.563960 153 73 65
-0.283535 -0.402571 -0.564067 141 76 65
-0.284189 -0.402620 -0.563487 154 89 78
-0.284843 -0.402669 -0.562907 156 104 93
-0.285496 -0.402718 -0.562328 161 109 98
-0.286542 -0.402115 -0.562440 154 112 100
-0.287194 -0.402164 -0.561861 156 114 102
-0.287847 -0.402213 -0.561282 155 120 115
-0.288500 -0.402262 -0.560704 170 135 130
-0.289539 -0.401659 -0.560821 180 155 148
-0.290190 -0.401708 -0.560244 166 141 134
-0.291225 -0.401105 -0.560365 160 141 135
-0.292258 -0.400501 -0.560488 165 146 140
-0.292907 -0.400550 -0.559913 167 156 149
-0.293556 -0.400599 -0.559337 169 158 151
-0.294205 -0.400647 -0.558762 174 163 156
-0.294854 -0.400696 -0.558186 164 153 146
-0.295503 -0.400745 -0.557611 144 130 124
-0.296152 -0.400794 -0.557035 141 127 121
-0.296801 -0.400843 -0.556460 153 144 139
-0.297450 -0.400891 -0.555884 165 156 151
-0.298099 -0.400940 -0.555309 161 154 146
-0.298748 -0.400989 -0.554734 167 160 152
-0.299397 -0.401038 -0.554158 171 160 151
-0.300413 -0.400433 -0.554295 173 162 153
-0.301061 -0.400482 -0.553721 167 136 134
-0.301709 -0.400530 -0.553147 136 105 103
-0.302357 -0.400579 -0.552572 124 70 71
-0.303004 -0.400628 -0.551998 126 72 73
-0.303652 -0.400676 -0.551424 128 87 81
-0.304300 -0.400725 -0.550849 132 91 85
-0.304947 -0.400774 -0.550275 156 134 124
-0.305595 -0.400822 -0.549701 183 161 151
-0.306243 -0.400871 -0.549126 171 156 144
-0.306890 -0.400920 -0.548552 167 152 140
-0.307538 -0.400969 -0.547977 189 146 137
-0.308186 -0.401017 -0.547403 126 83 74
-0.308834 -0.401066 -0.546829 117 34 24
-0.309481 -0.401115 -0.546254 117 34 24
-0.310129 -0.401163 -0.545680 120 33 20
-0.310777 -0.401212 -0.545106 117 30 17
-0.311424 -0.401261 -0.544531 109 31 15
-0.312072 -0.401309 -0.543957 108 30 14
-0.312720 -0.401358 -0.543382 103 32 18
-0.313368 -0.401407 -0.542808 99 28 14
-0.314015 -0.401456 -0.542234 89 29 16
-0.314663 -0.401504 -0.541659 88 28 15
-0.167854 -0.428513 -0.611932 68 26 25
-0.168572 -0.428567 -0.611295 67 25 24
-0.172074 -0.425430 -0.613391 67 23 23
-0.172786 -0.425484 -0.612760 67 23 23
-0.173497 -0.425537 -0.612129 69 22 21
-0.173656 -0.426229 -0.610948 67 20 19
-0.174369 -0.426283 -0.610316 70 23 22
-0.175082 -0.426336 -0.609683 70 23 22
-0.176344 -0.425751 -0.609604 72 25 24
-0.177056 -0.425805 -0.608973 73 26 25
-0.178315 -0.425220 -0.608897 73 27 23
-0.179025 -0.425273 -0.608267 74 28 24
-0.175924 -0.429800 -0.603735 76 28 24
-0.176643 -0.429854 -0.603097 78 30 26
-0.177904 -0.429269 -0.603019 81 28 26
-0.178622 -0.429323 -0.602382 81 28 26
-0.179880 -0.428737 -0.602308 82 29 27
-0.180596 -0.428791 -0.601672 82 29 27
-0.181313 -0.428845 -0.601037 84 29 28
-0.183637 -0.426980 -0.602096 85 30 29
-0.183281 -0.428313 -0.600332 84 29 28
-0.184530 -0.427727 -0.600265 85 30 29
-0.186309 -0.426501 -0.600768 87 29 27
-0.187551 -0.425914 -0.600706 88 30 28
-0.188792 -0.425327 -0.600647 90 30 28
-0.189501 -0.425381 -0.600018 90 30 28
-0.189683 -0.426074 -0.598816 91 29 26
-0.196706 -0.418442 -0.605072 91 29 26
-0.197402 -0.418495 -0.604455 92 30 27
-0.198621 -0.417906 -0.604414 94 32 29
-0.199838 -0.417318 -0.604375 94 29 27
-0.201053 -0.416729 -0.604339 96 31 29
-0.202265 -0.416140 -0.604304 96 31 29
-0.202956 -0.416192 -0.603692 97 32 30
-0.204164 -0.415603 -0.603661 99 32 31
-0.204853 -0.415655 -0.603049 101 34 33
-0.205543 -0.415707 -0.602438 101 34 33
-0.206746 -0.415117 -0.602411 105 38 37
-0.207947 -0.414528 -0.602386 106 36 36
-0.208634 -0.414579 -0.601777 108 38 38
-0.209831 -0.413989 -0.601756 111 39 37
-0.210517 -0.414041 -0.601147 115 43 41
-0.211203 -0.414092 -0.600539 115 43 39
-0.212396 -0.413502 -0.600522 118 46 42
-0.213080 -0.413554 -0.599915 120 48 41
-0.214269 -0.412963 -0.599901 123 51 44
-0.215455 -0.412372 -0.599890 126 51 43
-0.216137 -0.412423 -0.599285 127 52 44
-0.217319 -0.411832 -0.599277 133 53 45
-0.218000 -0.411883 -0.598673 137 57 49
-0.218681 -0.411935 -0.598069 142 56 47
-0.219859 -0.411343 -0.598065 141 55 46
-0.220539 -0.411394 -0.597463 146 56 44
-0.221712 -0.410803 -0.597462 145 55 43
-0.222391 -0.410854 -0.596860 144 51 38
-0.223069 -0.410905 -0.596259 144 51 38
-0.224238 -0.410312 -0.596262 144 47 33
-0.224915 -0.410363 -0.595662 141 44 30
-0.225593 -0.410414 -0.595061 142 40 28
-0.226757 -0.409822 -0.595069 142 40 28
-0.227433 -0.409873 -0.594470 144 40 26
-0.228109 -0.409924 -0.593871 143 39 25
-0.229268 -0.409331 -0.593883 145 37 24
-0.229943 -0.409381 -0.593285 145 37 24
-0.230617 -0.409432 -0.592686 146 38 23
-0.231771 -0.408839 -0.592703 146 38 23
-0.232445 -0.408890 -0.592106 145 37 22
