ply
format ascii 1.0
element vertex 1188
property float x
property float y
property float z
property uchar red
property uchar green
property uchar blue
end_header
-0.285280 -0.400376 -0.552478 146 37 27
-0.285565 -0.400395 -0.551707 146 37 27
-0.286529 -0.399761 -0.551327 146 37 27
-0.286814 -0.399780 -0.550558 146 37 27
-0.287775 -0.399146 -0.550182 144 37 27
-0.288060 -0.399165 -0.549414 145 38 28
-0.289020 -0.398531 -0.549043 146 41 30
-0.289304 -0.398550 -0.548277 146 41 30
-0.289587 -0.398570 -0.547510 137 35 25
-0.289871 -0.398589 -0.546744 133 31 21
-0.290828 -0.397954 -0.546381 127 33 25
-0.291112 -0.397974 -0.545616 125 31 23
-0.291395 -0.397993 -0.544851 139 56 49
-0.291678 -0.398012 -0.544086 147 64 57
-0.292632 -0.397377 -0.543731 146 64 54
-0.292915 -0.397397 -0.542967 132 50 40
-0.293198 -0.397416 -0.542204 135 47 37
-0.294150 -0.396781 -0.541855 135 47 37
-0.294432 -0.396800 -0.541093 138 47 38
-0.294714 -0.396819 -0.540331 138 47 38
-0.294996 -0.396838 -0.539569 141 48 37
-0.295278 -0.396858 -0.538807 143 50 39
-0.295560 -0.396877 -0.538045 141 59 42
-0.295842 -0.396896 -0.537283 146 64 47
-0.296789 -0.396261 -0.536946 149 76 58
-0.297071 -0.396280 -0.536186 149 76 58
-0.297352 -0.396299 -0.535426 140 72 64
-0.297634 -0.396318 -0.534665 135 67 59
-0.297915 -0.396337 -0.533905 163 121 118
-0.298197 -0.396356 -0.533145 194 152 149
-0.298478 -0.396376 -0.532384 188 167 162
-0.298760 -0.396395 -0.531624 186 165 160
-0.299041 -0.396414 -0.530863 144 118 114
-0.299983 -0.395778 -0.530542 113 87 83
-0.300264 -0.395797 -0.529783 124 98 94
-0.300545 -0.395816 -0.529025 136 110 106
-0.300826 -0.395835 -0.528266 151 135 130
-0.301107 -0.395855 -0.527507 177 161 156
-0.301387 -0.395874 -0.526748 175 164 155
-0.301668 -0.395893 -0.525989 176 165 156
-0.301949 -0.395912 -0.525230 182 168 160
-0.302886 -0.395276 -0.524923 180 166 158
-0.303166 -0.395295 -0.524166 182 169 158
-0.303447 -0.395314 -0.523409 180 167 156
-0.303727 -0.395333 -0.522651 178 168 156
-0.304661 -0.394697 -0.522352 183 173 161
-0.304940 -0.394716 -0.521596 186 172 164
-0.305873 -0.394080 -0.521301 186 172 164
-0.306152 -0.394099 -0.520547 187 169 160
-0.306431 -0.394118 -0.519793 175 157 148
-0.306710 -0.394137 -0.519038 151 117 105
-0.307639 -0.393500 -0.518751 98 64 52
-0.307918 -0.393519 -0.517998 118 53 40
-0.308197 -0.393538 -0.517246 128 63 50
-0.308475 -0.393557 -0.516493 136 63 43
-0.308754 -0.393576 -0.515741 130 57 37
-0.309032 -0.393595 -0.514988 128 49 36
-0.309311 -0.393614 -0.514235 123 44 31
-0.309590 -0.393633 -0.513483 122 42 36
-0.205066 -0.452907 -0.580960 78 23 20
-0.206118 -0.452280 -0.580344 76 21 18
-0.207169 -0.451654 -0.579731 94 32 31
-0.208219 -0.451027 -0.579121 82 20 19
-0.209267 -0.450400 -0.578515 89 24 22
-0.210314 -0.449773 -0.577911 87 22 20
-0.211361 -0.449146 -0.577310 89 20 17
-0.213121 -0.447869 -0.577007 89 20 17
-0.214164 -0.447241 -0.576414 89 20 17
-0.215206 -0.446614 -0.575824 90 21 18
-0.216960 -0.445337 -0.575536 90 21 18
-0.218712 -0.444059 -0.575254 94 25 22
-0.220462 -0.442782 -0.574979 98 26 24
-0.222209 -0.441504 -0.574709 101 29 27
-0.223244 -0.440876 -0.574141 100 31 28
-0.224987 -0.439598 -0.573883 102 33 30
-0.226728 -0.438320 -0.573630 102 36 32
-0.228467 -0.437042 -0.573384 102 36 32
-0.230203 -0.435763 -0.573144 105 39 35
-0.231938 -0.434485 -0.572910 105 39 35
-0.233670 -0.433206 -0.572682 105 39 35
-0.235399 -0.431927 -0.572461 104 38 34
-0.237127 -0.430648 -0.572246 104 38 34
-0.238852 -0.429369 -0.572036 105 39 35
-0.240575 -0.428089 -0.571833 107 38 35
-0.241591 -0.427460 -0.571315 108 39 36
-0.243309 -0.426181 -0.571123 107 38 35
-0.245026 -0.424901 -0.570937 108 39 36
-0.246037 -0.424271 -0.570430 107 38 35
-0.247750 -0.422991 -0.570255 107 38 35
-0.248758 -0.422362 -0.569757 107 38 35
-0.249765 -0.421732 -0.569261 107 38 35
-0.251472 -0.420451 -0.569101 107 38 33
-0.252477 -0.419821 -0.568613 107 38 33
-0.253480 -0.419191 -0.568129 107 38 33
-0.254482 -0.418561 -0.567647 106 37 32
-0.255483 -0.417931 -0.567168 109 37 33
-0.256483 -0.417301 -0.566693 109 37 33
-0.257482 -0.416670 -0.566221 109 37 33
-0.258479 -0.416040 -0.565751 110 38 34
-0.259476 -0.415409 -0.565285 111 39 35
-0.260471 -0.414779 -0.564822 112 40 36
-0.261465 -0.414148 -0.564362 113 40 36
-0.262458 -0.413517 -0.563905 116 43 39
-0.263450 -0.412887 -0.563451 128 48 42
-0.264440 -0.412256 -0.563000 129 49 43
-0.265430 -0.411625 -0.562553 135 42 31
-0.266418 -0.410994 -0.562108 134 41 30
-0.267406 -0.410363 -0.561667 143 36 26
-0.268392 -0.409731 -0.561228 143 36 26
-0.269377 -0.409100 -0.560793 146 35 26
-0.270361 -0.408469 -0.560361 146 35 26
-0.271343 -0.407837 -0.559932 146 35 26
-0.272325 -0.407206 -0.559506 146 35 26
-0.272617 -0.407226 -0.558716 146 35 26
-0.274285 -0.405942 -0.558663 147 36 27
-0.275263 -0.405311 -0.558246 148 37 28
-0.276240 -0.404679 -0.557833 148 37 28
-0.277215 -0.404047 -0.557422 146 37 27
-0.277505 -0.404067 -0.556640 147 38 28
-0.278479 -0.403435 -0.556234 147 38 28
-0.279452 -0.402802 -0.555831 147 38 28
-0.280424 -0.402170 -0.555432 146 37 27
-0.281394 -0.401538 -0.555035 146 37 27
-0.281682 -0.401557 -0.554259 146 37 27
-0.282651 -0.400925 -0.553867 146 37 27
-0.283618 -0.400293 -0.553478 146 37 27
-0.284585 -0.399660 -0.553092 146 37 27
-0.284871 -0.399680 -0.552321 146 37 27
-0.285836 -0.399047 -0.551940 146 37 27
-0.286120 -0.399066 -0.551170 146 37 27
-0.287084 -0.398433 -0.550794 146 37 27
-0.287368 -0.398453 -0.550026 147 38 28
-0.288330 -0.397820 -0.549654 147 38 28
-0.288613 -0.397839 -0.548887 148 41 31
-0.289573 -0.397206 -0.548520 145 38 28
-0.289856 -0.397225 -0.547755 140 35 24
-0.290139 -0.397245 -0.546990 137 32 21
-0.291097 -0.396611 -0.546629 137 35 27
-0.291380 -0.396631 -0.545865 133 31 23
-0.291662 -0.396650 -0.545102 127 39 31
-0.291945 -0.396669 -0.544338 129 41 33
-0.292899 -0.396036 -0.543985 145 62 55
-0.293181 -0.396055 -0.543223 139 56 49
-0.293464 -0.396074 -0.542461 135 50 36
-0.294416 -0.395441 -0.542114 134 49 35
-0.294697 -0.395460 -0.541354 137 47 35
-0.294979 -0.395479 -0.540593 137 47 35
-0.295929 -0.394845 -0.540252 138 48 36
-0.296210 -0.394864 -0.539493 139 49 37
-0.296491 -0.394883 -0.538735 140 53 38
-0.296772 -0.394902 -0.537976 143 56 41
-0.297052 -0.394922 -0.537217 143 62 47
-0.297333 -0.394941 -0.536458 150 69 54
-0.297614 -0.394960 -0.535699 147 73 58
-0.297895 -0.394979 -0.534940 144 70 55
-0.298176 -0.394998 -0.534182 133 69 64
-0.298457 -0.395017 -0.533423 148 84 79
-0.299401 -0.394383 -0.533099 185 153 149
-0.299681 -0.394402 -0.532341 196 164 160
-0.299961 -0.394421 -0.531584 179 165 157
-0.300242 -0.394440 -0.530827 183 169 161
-0.300522 -0.394459 -0.530070 180 171 164
-0.300802 -0.394478 -0.529312 176 167 160
-0.301742 -0.393844 -0.528999 176 165 158
-0.302022 -0.393863 -0.528243 180 169 162
-0.302302 -0.393882 -0.527488 186 172 164
-0.302581 -0.393901 -0.526732 185 171 163
-0.302861 -0.393920 -0.525976 182 163 157
-0.303141 -0.393939 -0.525221 173 154 148
-0.304077 -0.393304 -0.524918 162 147 137
-0.304356 -0.393323 -0.524164 154 139 129
-0.304635 -0.393342 -0.523410 151 133 124
-0.304914 -0.393361 -0.522656 136 118 109
-0.305847 -0.392726 -0.522361 137 105 101
-0.306779 -0.392091 -0.522069 126 94 90
-0.307057 -0.392110 -0.521318 135 103 99
-0.307335 -0.392129 -0.520567 169 137 133
-0.307613 -0.392148 -0.519816 174 153 140
-0.307891 -0.392167 -0.519065 177 156 143
-0.308169 -0.392186 -0.518314 146 111 96
-0.308447 -0.392205 -0.517563 102 67 52
-0.308725 -0.392224 -0.516812 127 57 41
-0.309003 -0.392242 -0.516061 128 58 42
-0.309281 -0.392261 -0.515310 132 54 36
-0.309559 -0.392280 -0.514558 125 47 29
-0.310484 -0.391645 -0.514285 127 44 32
-0.310762 -0.391664 -0.513536 126 43 31
-0.203869 -0.452742 -0.580493 80 22 20
-0.204922 -0.452117 -0.579876 73 15 13
-0.205974 -0.451491 -0.579262 154 98 100
-0.207025 -0.450866 -0.578650 101 45 47
-0.208075 -0.450240 -0.578042 80 18 17
-0.209124 -0.449615 -0.577437 85 23 22
-0.210171 -0.448989 -0.576835 89 20 17
-0.211933 -0.447715 -0.576531 89 20 17
-0.212978 -0.447089 -0.575937 91 19 17
-0.214736 -0.445815 -0.575643 92 20 18
-0.215778 -0.445189 -0.575057 92 20 18
-0.218246 -0.443266 -0.575075 95 23 21
-0.219997 -0.441991 -0.574800 96 24 22
-0.221034 -0.441364 -0.574228 98 26 24
-0.222781 -0.440089 -0.573963 99 27 25
-0.224526 -0.438814 -0.573705 103 31 29
-0.225558 -0.438188 -0.573145 103 34 31
-0.228010 -0.436263 -0.573208 103 34 31
-0.229748 -0.434988 -0.572969 106 37 34
-0.231484 -0.433712 -0.572736 106 37 34
-0.233217 -0.432436 -0.572508 107 38 35
-0.234949 -0.431160 -0.572288 106 37 34
-0.236678 -0.429884 -0.572073 106 37 34
-0.238404 -0.428607 -0.571864 107 38 35
-0.240129 -0.427331 -0.571662 107 38 35
-0.241145 -0.426703 -0.571144 108 39 36
-0.242866 -0.425426 -0.570952 108 39 36
-0.244584 -0.424149 -0.570767 108 39 36
-0.245596 -0.423521 -0.570261 107 38 35
-0.246607 -0.422893 -0.569758 107 38 35
-0.248320 -0.421615 -0.569588 107 38 33
-0.249328 -0.420987 -0.569093 107 38 33
-0.251036 -0.419709 -0.568934 108 39 34
-0.252041 -0.419081 -0.568446 107 38 33
-0.253045 -0.418452 -0.567962 107 38 33
-0.254048 -0.417823 -0.567480 106 37 32
-0.255050 -0.417194 -0.567002 109 37 33
-0.256051 -0.416566 -0.566527 109 37 33
-0.257050 -0.415937 -0.566055 108 36 32
-0.258049 -0.415308 -0.565586 109 37 33
-0.259046 -0.414678 -0.565120 109 37 33
-0.260042 -0.414049 -0.564657 110 38 34
-0.261733 -0.412770 -0.564546 111 38 34
-0.262726 -0.412141 -0.564091 112 39 35
-0.263718 -0.411512 -0.563639 121 44 39
-0.264709 -0.410882 -0.563190 123 46 41
-0.265005 -0.410902 -0.562390 131 48 38
-0.265995 -0.410272 -0.561945 129 46 36
-0.266983 -0.409643 -0.561504 138 39 28
-0.267970 -0.409013 -0.561066 138 39 28
-0.268956 -0.408383 -0.560631 145 36 26
-0.269940 -0.407753 -0.560199 145 36 26
-0.270924 -0.407123 -0.559771 146 35 26
-0.271906 -0.406493 -0.559345 146 35 26
-0.272887 -0.405863 -0.558922 146 35 26
-0.273867 -0.405232 -0.558503 147 36 27
-0.274846 -0.404602 -0.558086 147 36 27
-0.275824 -0.403972 -0.557673 147 36 27
-0.276801 -0.403341 -0.557263 147 36 27
-0.277776 -0.402710 -0.556856 148 37 28
-0.278751 -0.402080 -0.556451 147 38 28
-0.279039 -0.402099 -0.555673 147 38 28
-0.280012 -0.401469 -0.555273 146 37 27
-0.280983 -0.400838 -0.554877 146 37 27
-0.281953 -0.400207 -0.554484 146 37 27
-0.282923 -0.399576 -0.554093 146 37 27
-0.283209 -0.399595 -0.553321 146 37 27
-0.284176 -0.398964 -0.552935 146 37 27
-0.285142 -0.398333 -0.552553 147 38 28
-0.286108 -0.397702 -0.552173 146 37 27
-0.287072 -0.397070 -0.551797 147 38 28
-0.288035 -0.396439 -0.551424 146 37 27
-0.288318 -0.396458 -0.550659 147 38 28
-0.288601 -0.396477 -0.549894 147 38 28
-0.288884 -0.396496 -0.549129 147 40 30
-0.289844 -0.395865 -0.548764 145 38 28
-0.290127 -0.395884 -0.548000 142 35 25
-0.290409 -0.395903 -0.547237 141 34 24
-0.291367 -0.395271 -0.546877 140 35 26
-0.291649 -0.395291 -0.546115 139 34 25
-0.291931 -0.395310 -0.545354 135 36 27
-0.292887 -0.394678 -0.545000 133 34 25
-0.293168 -0.394697 -0.544240 125 37 29
-0.293450 -0.394716 -0.543480 139 51 43
-0.293731 -0.394735 -0.542719 137 49 39
-0.294684 -0.394103 -0.542374 135 47 37
-0.294965 -0.394122 -0.541615 135 48 35
-0.295246 -0.394141 -0.540856 135 48 35
-0.296196 -0.393509 -0.540517 137 47 35
-0.296476 -0.393528 -0.539760 138 48 36
-0.296757 -0.393547 -0.539003 138 48 36
-0.297037 -0.393566 -0.538245 140 50 38
-0.297317 -0.393585 -0.537488 139 52 39
-0.297597 -0.393604 -0.536731 145 58 45
-0.297878 -0.393623 -0.535974 148 66 54
-0.298158 -0.393642 -0.535216 152 70 58
-0.298438 -0.393661 -0.534459 147 73 58
-0.298719 -0.393680 -0.533702 145 71 56
-0.298999 -0.393699 -0.532944 135 77 73
-0.299943 -0.393067 -0.532624 180 122 118
-0.300222 -0.393086 -0.531868 188 166 158
-0.300502 -0.393105 -0.531112 179 157 149
-0.300782 -0.393124 -0.530357 166 155 146
-0.301062 -0.393143 -0.529601 161 150 141
-0.302002 -0.392510 -0.529290 145 129 122
-0.302281 -0.392529 -0.528535 128 112 105
-0.302560 -0.392547 -0.527781 129 94 91
-0.303498 -0.391914 -0.527476 118 83 80
-0.303776 -0.391933 -0.526723 117 80 77
-0.304055 -0.391952 -0.525971 145 108 105
-0.304334 -0.391971 -0.525218 150 135 125
-0.304612 -0.391990 -0.524465 163 148 138
-0.305546 -0.391357 -0.524170 141 126 116
-0.305824 -0.391376 -0.523418 103 88 78
-0.306102 -0.391394 -0.522667 96 64 60
-0.307035 -0.390761 -0.522378 95 63 59
-0.307312 -0.390780 -0.521628 98 66 60
-0.307589 -0.390799 -0.520879 127 95 89
-0.307867 -0.390817 -0.520129 159 144 132
-0.308144 -0.390836 -0.519379 176 161 149
-0.308422 -0.390855 -0.518630 179 167 151
-0.308699 -0.390874 -0.517880 164 152 136
-0.308977 -0.390893 -0.517131 130 92 81
-0.309904 -0.390259 -0.516855 94 56 45
-0.310181 -0.390278 -0.516107 129 53 39
-0.310457 -0.390297 -0.515359 130 54 40
-0.310734 -0.390315 -0.514611 135 54 39
-0.311011 -0.390334 -0.513863 130 49 34
-0.311935 -0.389700 -0.513596 126 43 31
-0.203390 -0.451927 -0.580309 80 22 22
-0.204444 -0.451303 -0.579692 72 14 14
-0.204778 -0.451326 -0.578791 140 91 92
-0.205830 -0.450702 -0.578179 173 124 125
-0.206881 -0.450078 -0.577569 84 29 28
-0.207931 -0.449454 -0.576963 77 22 21
-0.209697 -0.448183 -0.576653 91 19 17
-0.210745 -0.447558 -0.576055 91 19 17
-0.211791 -0.446934 -0.575460 92 19 17
-0.213551 -0.445662 -0.575165 92 19 17
-0.214595 -0.445038 -0.574577 92 19 17
-0.217065 -0.443119 -0.574595 93 20 18
-0.218819 -0.441847 -0.574319 96 23 21
-0.220570 -0.440575 -0.574049 97 24 22
-0.222319 -0.439303 -0.573786 99 26 24
-0.223354 -0.438677 -0.573221 102 29 27
-0.225099 -0.437405 -0.572969 104 31 29
-0.226841 -0.436132 -0.572722 104 31 29
-0.228582 -0.434859 -0.572482 103 34 31
-0.230320 -0.433586 -0.572248 104 35 32
-0.232056 -0.432313 -0.572020 106 37 34
-0.234498 -0.430393 -0.572114 106 37 34
-0.236228 -0.429119 -0.571900 106 37 34
-0.237957 -0.427846 -0.571692 107 38 35
-0.239683 -0.426572 -0.571491 107 38 35
-0.240700 -0.425945 -0.570973 108 39 36
-0.242422 -0.424671 -0.570782 108 39 36
-0.244142 -0.423397 -0.570597 108 39 36
-0.245155 -0.422770 -0.570091 108 39 36
-0.246167 -0.422144 -0.569589 107 38 35
-0.247881 -0.420869 -0.569419 106 37 32
-0.248890 -0.420242 -0.568925 107 38 33
-0.249898 -0.419615 -0.568433 107 38 33
-0.250904 -0.418988 -0.567944 107 38 33
-0.251910 -0.418361 -0.567458 109 37 33
-0.252914 -0.417733 -0.566976 109 37 33
-0.253917 -0.417106 -0.566496 109 37 33
-0.254920 -0.416478 -0.566020 109 37 33
-0.255920 -0.415851 -0.565547 108 36 32
-0.257619 -0.414575 -0.565421 109 37 33
-0.258617 -0.413947 -0.564955 109 37 33
-0.259613 -0.413320 -0.564493 109 37 33
-0.260609 -0.412692 -0.564033 109 37 33
-0.261604 -0.412064 -0.563577 110 38 34
-0.262597 -0.411436 -0.563124 115 39 36
-0.263590 -0.410808 -0.562674 118 42 39
-0.264581 -0.410179 -0.562227 121 44 37
-0.265571 -0.409551 -0.561783 123 46 39
-0.266560 -0.408923 -0.561342 130 44 35
-0.267548 -0.408294 -0.560904 129 43 34
-0.268534 -0.407666 -0.560469 139 37 29
-0.269520 -0.407037 -0.560038 140 38 30
-0.270504 -0.406409 -0.559609 146 35 26
-0.271487 -0.405780 -0.559184 146 35 26
-0.272469 -0.405151 -0.558762 146 35 26
-0.274139 -0.403874 -0.558711 147 36 27
-0.275118 -0.403245 -0.558297 147 36 27
-0.275408 -0.403264 -0.557513 147 36 27
-0.276386 -0.402635 -0.557103 148 37 28
-0.277362 -0.402006 -0.556696 148 37 28
-0.278337 -0.401377 -0.556293 147 38 28
-0.279311 -0.400747 -0.555892 149 40 30
-0.280284 -0.400118 -0.555494 146 37 27
-0.281256 -0.399488 -0.555100 146 37 27
-0.281543 -0.399508 -0.554326 146 37 27
-0.282513 -0.398878 -0.553936 146 37 27
-0.283482 -0.398249 -0.553549 146 37 27
-0.283767 -0.398268 -0.552778 146 37 27
-0.284734 -0.397638 -0.552396 147 38 28
-0.285700 -0.397008 -0.552017 146 37 27
-0.286665 -0.396378 -0.551641 147 38 28
-0.287629 -0.395748 -0.551268 147 38 28
-0.287912 -0.395767 -0.550503 147 38 28
-0.288874 -0.395137 -0.550135 147 38 28
-0.289835 -0.394507 -0.549770 147 40 30
-0.290117 -0.394526 -0.549008 145 38 28
-0.291076 -0.393896 -0.548647 143 36 26
-0.291358 -0.393915 -0.547887 143 36 26
-0.291639 -0.393934 -0.547127 141 36 25
-0.291921 -0.393953 -0.546366 141 36 25
-0.292202 -0.393972 -0.545606 139 37 27
-0.292483 -0.393991 -0.544845 138 36 26
-0.293439 -0.393361 -0.544496 133 34 25
-0.293720 -0.393380 -0.543737 133 34 25
-0.294000 -0.393399 -0.542978 132 38 30
-0.294953 -0.392768 -0.542635 139 45 37
-0.295234 -0.392787 -0.541877 137 50 37
-0.295514 -0.392806 -0.541120 136 49 36
-0.296464 -0.392175 -0.540783 135 48 35
-0.296744 -0.392194 -0.540027 134 47 34
-0.297024 -0.392213 -0.539271 137 47 35
-0.297304 -0.392232 -0.538516 138 48 36
-0.298251 -0.391601 -0.538186 139 49 37
-0.298531 -0.391620 -0.537432 141 51 39
-0.298810 -0.391639 -0.536678 141 55 44
-0.299089 -0.391658 -0.535924 146 60 49
-0.299368 -0.391677 -0.535169 152 71 56
-0.299647 -0.391696 -0.534415 154 73 58
-0.299927 -0.391715 -0.533661 148 74 61
-0.300206 -0.391734 -0.532907 137 63 50
-0.301148 -0.391102 -0.532591 130 80 75
-0.301427 -0.391121 -0.531838 178 128 123
-0.301705 -0.391140 -0.531086 178 163 153
-0.301984 -0.391159 -0.530333 176 161 151
-0.302263 -0.391178 -0.529581 170 157 146
-0.303202 -0.390546 -0.529274 125 112 101
-0.303480 -0.390565 -0.528523 98 68 63
-0.303758 -0.390584 -0.527772 97 67 62
-0.304695 -0.389952 -0.527472 100 68 64
-0.304972 -0.389971 -0.526722 126 94 90
-0.305250 -0.389990 -0.525973 156 142 134
-0.305527 -0.390009 -0.525223 178 164 156
-0.305805 -0.390028 -0.524474 174 166 154
-0.306738 -0.389396 -0.524183 171 163 151
-0.307015 -0.389414 -0.523435 151 138 127
-0.307292 -0.389433 -0.522687 157 144 133
-0.307569 -0.389452 -0.521939 165 151 143
-0.307846 -0.389471 -0.521191 170 156 148
-0.308122 -0.389490 -0.520443 169 161 149
-0.308399 -0.389509 -0.519695 172 164 152
-0.308676 -0.389527 -0.518947 171 165 150
-0.309604 -0.388895 -0.518670 172 166 151
-0.309881 -0.388914 -0.517923 187 169 158
-0.310157 -0.388932 -0.517177 160 142 131
-0.310433 -0.388951 -0.516430 118 65 59
-0.310710 -0.388970 -0.515684 106 53 47
-0.310986 -0.388989 -0.514937 136 57 44
-0.311262 -0.389007 -0.514191 137 58 45
-0.311539 -0.389026 -0.513444 136 55 36
-0.311815 -0.389045 -0.512698 130 49 30
-0.202190 -0.451758 -0.579841 81 23 23
-0.203245 -0.451135 -0.579223 77 19 19
-0.204300 -0.450513 -0.578607 101 53 57
-0.204633 -0.450535 -0.577706 178 130 134
-0.206405 -0.449267 -0.577386 109 56 54
-0.207456 -0.448645 -0.576781 74 21 19
-0.208506 -0.448022 -0.576178 90 18 16
-0.210272 -0.446753 -0.575873 91 19 17
-0.211319 -0.446130 -0.575278 92 19 17
-0.212365 -0.445507 -0.574686 92 19 17
-0.214125 -0.444238 -0.574397 92 19 17
-0.215883 -0.442969 -0.574114 93 20 18
-0.217639 -0.441700 -0.573837 96 23 21
-0.219392 -0.440431 -0.573567 96 23 21
-0.221143 -0.439162 -0.573302 97 24 22
-0.222892 -0.437892 -0.573044 99 26 24
-0.224639 -0.436622 -0.572792 100 27 25
-0.226383 -0.435352 -0.572546 104 31 29
-0.228125 -0.434082 -0.572306 104 32 30
-0.229865 -0.432812 -0.572073 105 33 31
-0.231602 -0.431542 -0.571846 106 37 34
-0.234047 -0.429625 -0.571941 104 35 32
-0.235779 -0.428355 -0.571728 106 37 34
-0.237509 -0.427084 -0.571520 107 38 35
-0.239237 -0.425813 -0.571319 107 38 35
-0.240962 -0.424542 -0.571125 108 39 36
-0.241979 -0.423917 -0.570611 107 38 35
-0.243700 -0.422645 -0.570427 107 38 35
-0.244714 -0.422020 -0.569922 108 39 36
-0.246432 -0.420748 -0.569749 108 39 36
-0.247443 -0.420123 -0.569251 106 37 32
-0.248452 -0.419497 -0.568756 107 38 33
-0.249461 -0.418871 -0.568265 107 38 33
-0.250468 -0.418246 -0.567776 107 38 33
-0.251475 -0.417620 -0.567291 109 37 33
-0.252480 -0.416994 -0.566809 108 36 32
-0.253484 -0.416368 -0.566330 109 37 33
-0.254487 -0.415742 -0.565854 108 36 32
-0.255488 -0.415116 -0.565381 109 36 32
-0.257188 -0.413843 -0.565255 109 36 32
-0.258187 -0.413216 -0.564790 110 37 33
-0.259185 -0.412590 -0.564328 110 37 33
-0.260181 -0.411964 -0.563869 109 36 32
-0.261177 -0.411337 -0.563413 109 36 32
-0.262171 -0.410710 -0.562960 110 37 33
-0.263164 -0.410084 -0.562510 112 39 35
-0.264156 -0.409457 -0.562063 113 41 34
-0.265147 -0.408830 -0.561620 114 42 35
-0.266137 -0.408203 -0.561179 122 45 38
-0.267125 -0.407576 -0.560742 123 46 39
-0.268806 -0.406302 -0.560669 132 41 34
-0.269791 -0.405675 -0.560239 131 40 33
-0.270776 -0.405047 -0.559813 142 35 27
-0.271759 -0.404420 -0.559389 142 35 27
-0.272742 -0.403792 -0.558969 146 35 26
-0.273723 -0.403165 -0.558551 146 35 26
-0.274703 -0.402537 -0.558137 147 36 27
-0.274993 -0.402557 -0.557354 147 36 27
-0.275971 -0.401929 -0.556944 147 36 27
-0.276948 -0.401301 -0.556537 147 36 27
-0.277924 -0.400674 -0.556134 148 37 28
-0.278899 -0.400046 -0.555734 150 39 30
-0.279873 -0.399418 -0.555336 146 37 27
-0.280845 -0.398789 -0.554942 146 37 27
-0.281817 -0.398161 -0.554551 146 37 27
-0.282787 -0.397533 -0.554163 146 37 27
-0.283073 -0.397552 -0.553392 146 37 27
-0.284041 -0.396924 -0.553009 146 37 27
-0.285009 -0.396296 -0.552628 146 37 27
-0.285293 -0.396315 -0.551860 146 37 27
-0.286259 -0.395686 -0.551485 147 38 28
-0.287223 -0.395058 -0.551112 147 38 28
-0.287506 -0.395077 -0.550347 147 38 28
-0.288469 -0.394448 -0.549979 147 38 28
-0.289431 -0.393819 -0.549614 149 40 30
-0.290391 -0.393190 -0.549253 149 40 30
-0.290673 -0.393209 -0.548492 143 36 26
-0.290954 -0.393229 -0.547732 143 36 26
-0.291913 -0.392599 -0.547376 142 37 26
-0.292193 -0.392619 -0.546618 142 37 26
-0.292474 -0.392638 -0.545859 142 37 26
-0.292755 -0.392657 -0.545100 141 36 25
-0.293711 -0.392027 -0.544752 138 36 26
-0.293991 -0.392046 -0.543995 135 33 23
-0.294271 -0.392066 -0.543238 131 34 24
-0.295224 -0.391436 -0.542896 137 40 30
-0.295504 -0.391455 -0.542140 137 51 40
-0.295784 -0.391474 -0.541385 138 52 41
-0.296064 -0.391493 -0.540629 134 52 37
-0.297014 -0.390863 -0.540295 131 49 34
-0.297293 -0.390882 -0.539541 136 46 34
-0.297572 -0.390901 -0.538787 137 47 35
-0.297851 -0.390920 -0.538032 137 47 35
-0.298799 -0.390291 -0.537706 139 49 37
-0.299077 -0.390309 -0.536954 140 49 40
-0.299356 -0.390328 -0.536201 141 50 41
-0.300301 -0.389698 -0.535881 144 57 44
-0.300579 -0.389717 -0.535130 149 62 49
-0.300857 -0.389736 -0.534379 150 72 56
-0.301135 -0.389755 -0.533628 148 70 54
-0.301413 -0.389774 -0.532877 142 74 66
-0.301691 -0.389793 -0.532125 138 70 62
-0.302632 -0.389163 -0.531816 155 118 113
-0.302910 -0.389181 -0.531067 198 161 156
-0.303187 -0.389200 -0.530317 183 170 159
-0.303465 -0.389219 -0.529568 183 170 159
-0.303742 -0.389238 -0.528818 164 148 141
-0.304020 -0.389257 -0.528069 161 145 138
-0.304957 -0.388626 -0.527770 170 156 148
-0.305234 -0.388645 -0.527022 172 158 150
-0.305511 -0.388664 -0.526274 171 164 156
-0.305788 -0.388683 -0.525526 173 166 158
-0.306064 -0.388702 -0.524778 172 165 155
-0.306998 -0.388071 -0.524489 172 165 155
-0.307931 -0.387440 -0.524203 172 166 153
-0.308206 -0.387459 -0.523458 173 167 154
-0.308482 -0.387478 -0.522713 173 166 156
-0.308758 -0.387496 -0.521968 168 161 151
-0.309034 -0.387515 -0.521223 168 161 151
-0.309309 -0.387534 -0.520479 166 159 149
-0.309585 -0.387552 -0.519734 164 157 147
-0.309861 -0.387571 -0.518989 155 148 138
-0.310137 -0.387590 -0.518244 156 146 134
-0.310412 -0.387609 -0.517499 154 144 132
-0.310688 -0.387627 -0.516754 157 132 123
-0.310964 -0.387646 -0.516009 134 109 100
-0.311240 -0.387665 -0.515264 117 59 47
-0.311515 -0.387684 -0.514519 117 59 47
-0.311791 -0.387702 -0.513774 137 59 39
-0.312067 -0.387721 -0.513029 133 55 35
-0.312990 -0.387090 -0.512770 133 52 33
-0.313911 -0.386458 -0.512513 127 46 27
-0.200988 -0.451585 -0.579372 81 23 23
-0.202045 -0.450964 -0.578753 77 19 19
-0.203101 -0.450343 -0.578136 110 65 68
-0.204155 -0.449722 -0.577523 141 96 99
-0.205209 -0.449101 -0.576913 84 41 43
-0.206261 -0.448479 -0.576306 63 20 22
-0.207312 -0.447858 -0.575701 87 17 17
-0.209081 -0.446592 -0.575396 89 19 19
-0.210129 -0.445971 -0.574800 92 19 17
-0.211176 -0.445349 -0.574206 92 19 17
-0.212939 -0.444083 -0.573916 94 18 17
-0.214699 -0.442817 -0.573633 95 19 18
-0.216457 -0.441551 -0.573355 95 22 20
-0.218213 -0.440284 -0.573083 95 22 20
-0.219966 -0.439018 -0.572818 99 23 22
-0.221717 -0.437751 -0.572559 100 24 23
-0.223466 -0.436484 -0.572306 101 25 24
-0.225212 -0.435217 -0.572059 104 28 27
-0.226957 -0.433950 -0.571818 104 31 29
-0.229410 -0.432038 -0.571898 105 32 30
-0.231149 -0.430770 -0.571671 106 34 32
-0.232886 -0.429503 -0.571451 106 34 32
-0.234620 -0.428235 -0.571236 108 36 34
-0.236353 -0.426967 -0.571028 108 36 34
-0.238083 -0.425699 -0.570826 109 37 35
-0.239810 -0.424430 -0.570631 109 37 35
-0.241536 -0.423162 -0.570441 109 37 35
-0.243259 -0.421893 -0.570258 109 37 35
-0.244273 -0.421269 -0.569752 110 38 36
-0.245287 -0.420645 -0.569250 109 37 35
-0.247004 -0.419376 -0.569082 109 37 35
-0.248015 -0.418752 -0.568588 109 37 35
-0.249024 -0.418128 -0.568097 109 37 33
-0.250032 -0.417503 -0.567609 109 37 33
-0.251039 -0.416879 -0.567124 109 37 33
-0.252045 -0.416255 -0.566642 108 36 32
-0.253050 -0.415630 -0.566163 110 37 33
-0.254054 -0.415005 -0.565687 109 36 32
-0.255057 -0.414381 -0.565215 109 36 32
-0.256758 -0.413110 -0.565090 109 36 32
-0.257758 -0.412485 -0.564625 109 36 32
-0.258756 -0.411860 -0.564163 109 36 32
-0.259754 -0.411235 -0.563704 109 36 32
-0.260750 -0.410610 -0.563249 109 36 32
-0.261745 -0.409985 -0.562796 109 36 32
-0.262739 -0.409360 -0.562347 110 37 33
-0.263732 -0.408734 -0.561900 112 39 35
-0.264723 -0.408109 -0.561457 112 39 35
-0.265714 -0.407483 -0.561017 116 40 37
-0.266703 -0.406858 -0.560580 119 43 40
-0.268385 -0.405586 -0.560507 123 43 37
-0.269372 -0.404960 -0.560078 124 44 38
-0.270357 -0.404334 -0.559652 137 37 33
-0.271341 -0.403708 -0.559228 137 37 33
-0.272325 -0.403082 -0.558808 144 35 27
-0.273306 -0.402456 -0.558391 145 36 28
-0.274287 -0.401830 -0.557977 147 36 27
-0.275267 -0.401204 -0.557567 147 36 27
-0.276245 -0.400577 -0.557159 147 36 27
-0.277223 -0.399951 -0.556754 147 36 27
-0.278199 -0.399324 -0.556353 148 37 28
-0.278487 -0.399344 -0.555575 150 39 30
-0.279461 -0.398717 -0.555178 147 38 28
-0.280435 -0.398091 -0.554784 147 38 28
-0.281407 -0.397464 -0.554394 147 38 28
-0.282378 -0.396837 -0.554006 146 37 27
-0.283348 -0.396210 -0.553621 146 38 25
-0.283633 -0.396229 -0.552852 146 38 25
-0.284601 -0.395602 -0.552472 146 38 25
-0.285568 -0.394975 -0.552095 147 39 26
-0.286534 -0.394348 -0.551721 147 39 26
-0.287499 -0.393721 -0.551351 147 39 26
-0.287782 -0.393740 -0.550587 146 38 25
-0.288745 -0.393112 -0.550221 147 39 26
-0.289707 -0.392485 -0.549858 149 41 28
-0.289988 -0.392504 -0.549098 147 39 26
-0.290948 -0.391876 -0.548739 144 38 25
-0.291229 -0.391895 -0.547981 144 38 25
-0.292188 -0.391268 -0.547627 144 38 25
-0.292468 -0.391287 -0.546870 144 38 25
-0.292748 -0.391306 -0.546112 142 38 24
-0.293705 -0.390678 -0.545765 142 38 24
-0.293984 -0.390697 -0.545009 141 36 25
-0.294264 -0.390716 -0.544253 140 35 24
-0.294544 -0.390735 -0.543498 137 35 25
-0.295497 -0.390107 -0.543158 138 36 26
-0.295776 -0.390126 -0.542404 133 40 29
-0.296056 -0.390145 -0.541650 129 36 25
-0.296335 -0.390164 -0.540895 134 51 39
-0.297285 -0.389535 -0.540563 135 52 40
-0.297564 -0.389554 -0.539811 134 49 35
-0.297842 -0.389573 -0.539058 134 49 35
-0.298121 -0.389592 -0.538305 137 47 35
-0.299069 -0.388964 -0.537981 138 48 36
-0.299347 -0.388983 -0.537230 140 47 36
-0.299625 -0.389002 -0.536479 141 48 37
-0.299903 -0.389020 -0.535728 143 50 39
-0.300848 -0.388392 -0.535411 146 53 42
-0.301125 -0.388411 -0.534662 145 60 46
-0.301403 -0.388430 -0.533912 152 67 53
-0.301680 -0.388448 -0.533163 149 75 60
-0.301957 -0.388467 -0.532413 147 73 58
-0.302235 -0.388486 -0.531664 135 74 68
-0.302512 -0.388505 -0.530914 145 84 78
-0.303453 -0.387876 -0.530610 176 144 140
-0.303729 -0.387895 -0.529862 196 164 160
-0.304006 -0.387914 -0.529114 179 166 155
-0.304283 -0.387932 -0.528366 178 165 154
-0.305221 -0.387303 -0.528069 177 166 157
-0.305497 -0.387322 -0.527323 173 162 153
-0.305773 -0.387341 -0.526576 167 160 152
-0.306050 -0.387360 -0.525830 168 161 153
-0.306326 -0.387378 -0.525083 164 160 153
-0.306602 -0.387397 -0.524337 161 157 150
-0.307535 -0.386768 -0.524051 154 150 141
-0.307811 -0.386786 -0.523306 157 153 144
-0.308087 -0.386805 -0.522561 158 152 139
-0.309018 -0.386176 -0.522282 157 151 138
-0.309293 -0.386194 -0.521539 164 158 145
-0.309568 -0.386213 -0.520795 165 159 146
-0.309844 -0.386232 -0.520052 163 159 148
-0.310119 -0.386250 -0.519308 165 161 150
-0.310394 -0.386269 -0.518565 166 162 151
-0.310669 -0.386288 -0.517822 165 161 150
-0.310944 -0.386306 -0.517078 178 165 154
-0.311219 -0.386325 -0.516335 185 172 161
-0.311495 -0.386344 -0.515592 185 144 138
-0.311770 -0.386362 -0.514848 130 89 83
-0.312045 -0.386381 -0.514105 121 50 36
-0.312320 -0.386400 -0.513362 128 57 43
-0.313243 -0.385770 -0.513104 138 57 40
-0.314165 -0.385140 -0.512849 139 58 41
-0.314439 -0.385158 -0.512109 128 46 31
-0.314713 -0.385177 -0.511368 124 42 27
-0.199785 -0.451410 -0.578903 81 23 23
-0.200843 -0.450791 -0.578282 75 17 17
-0.201900 -0.450171 -0.577664 128 85 91
-0.202956 -0.449551 -0.577050 131 88 94
-0.204011 -0.448931 -0.576438 143 114 118
-0.205065 -0.448312 -0.575830 117 88 92
-0.206117 -0.447692 -0.575225 78 16 15
-0.207888 -0.446429 -0.574918 84 22 21
-0.208938 -0.445809 -0.574321 92 19 17
-0.209986 -0.445188 -0.573726 92 19 17
-0.211751 -0.443925 -0.573435 94 18 17
-0.213513 -0.442662 -0.573150 95 19 18
-0.215274 -0.441398 -0.572872 93 20 18
-0.217031 -0.440135 -0.572599 95 22 20
-0.218787 -0.438871 -0.572333 98 22 21
-0.220540 -0.437607 -0.572073 99 23 22
-0.222291 -0.436343 -0.571819 100 24 23
-0.224040 -0.435079 -0.571571 102 26 25
-0.226499 -0.433171 -0.571643 103 30 28
-0.228243 -0.431907 -0.571409 104 31 29
-0.230696 -0.429999 -0.571497 105 32 28
-0.232434 -0.428734 -0.571277 106 33 29
-0.234170 -0.427469 -0.571064 107 34 30
-0.235904 -0.426204 -0.570856 109 36 32
-0.237636 -0.424938 -0.570655 108 36 32
-0.239365 -0.423673 -0.570460 109 37 33
-0.241092 -0.422407 -0.570271 109 37 33
-0.242109 -0.421785 -0.569761 109 37 33
-0.243832 -0.420519 -0.569583 110 38 34
-0.244847 -0.419896 -0.569081 109 37 33
-0.245860 -0.419273 -0.568583 108 36 32
-0.246872 -0.418651 -0.568087 108 36 32
-0.247882 -0.418028 -0.567595 109 37 33
-0.248892 -0.417405 -0.567105 109 37 33
-0.249901 -0.416782 -0.566619 109 37 33
-0.250908 -0.416159 -0.566136 108 36 32
-0.251914 -0.415536 -0.565656 109 36 32
-0.253621 -0.414269 -0.565521 109 36 32
-0.254625 -0.413645 -0.565049 109 36 32
-0.256328 -0.412378 -0.564924 109 36 32
-0.257328 -0.411755 -0.564460 109 36 32
-0.258327 -0.411131 -0.563998 109 36 32
-0.259326 -0.410507 -0.563540 109 36 32
-0.260323 -0.409883 -0.563085 109 36 32
-0.261319 -0.409260 -0.562632 109 36 32
-0.262313 -0.408636 -0.562183 110 37 33
-0.263307 -0.408012 -0.561737 110 37 33
-0.264300 -0.407388 -0.561294 110 37 33
-0.265291 -0.406763 -0.560854 111 38 34
-0.266281 -0.406139 -0.560417 112 39 35
-0.267965 -0.404871 -0.560346 115 40 34
-0.268952 -0.404246 -0.559917 119 44 38
-0.269938 -0.403622 -0.559491 129 42 36
-0.270923 -0.402997 -0.559068 129 42 36
-0.271907 -0.402372 -0.558648 139 37 29
-0.272890 -0.401748 -0.558231 140 38 30
-0.273872 -0.401123 -0.557818 145 36 26
-0.274852 -0.400498 -0.557407 145 36 26
-0.275832 -0.399873 -0.557000 147 36 27
-0.276810 -0.399248 -0.556595 146 35 26
-0.277787 -0.398623 -0.556194 147 36 27
-0.278763 -0.397997 -0.555796 150 39 30
-0.279738 -0.397372 -0.555401 147 38 28
-0.280711 -0.396747 -0.555009 147 38 28
-0.280997 -0.396766 -0.554236 147 38 28
-0.281969 -0.396141 -0.553849 147 38 28
-0.282940 -0.395515 -0.553465 146 37 27
-0.283909 -0.394890 -0.553083 147 38 28
-0.284878 -0.394264 -0.552705 146 37 27
-0.285162 -0.394283 -0.551939 146 37 27
-0.286128 -0.393657 -0.551565 147 38 28
-0.287094 -0.393031 -0.551195 147 38 28
-0.287377 -0.393051 -0.550431 146 37 27
-0.288341 -0.392425 -0.550066 147 38 28
-0.289303 -0.391798 -0.549703 147 38 28
-0.290265 -0.391172 -0.549344 147 38 28
-0.291225 -0.390546 -0.548987 146 37 27
-0.291506 -0.390565 -0.548230 146 37 27
-0.291786 -0.390584 -0.547473 144 37 27
-0.292744 -0.389958 -0.547122 144 37 27
-0.293024 -0.389977 -0.546367 142 37 26
-0.293981 -0.389350 -0.546021 142 37 26
-0.294260 -0.389369 -0.545267 142 37 26
-0.295214 -0.388743 -0.544926 142 37 26
-0.295493 -0.388761 -0.544173 141 36 25
-0.295772 -0.388780 -0.543421 141 36 25
-0.296050 -0.388799 -0.542668 135 36 27
-0.296329 -0.388818 -0.541915 131 32 23
-0.296607 -0.388837 -0.541163 129 41 31
-0.297558 -0.388210 -0.540832 136 48 38
-0.297836 -0.388229 -0.540081 135 50 36
-0.298785 -0.387602 -0.539756 134 49 35
-0.299063 -0.387621 -0.539006 134 47 34
-0.300010 -0.386994 -0.538685 135 48 35
-0.300287 -0.387013 -0.537937 139 46 35
-0.300564 -0.387031 -0.537189 139 46 35
-0.300841 -0.387050 -0.536441 141 48 37
-0.301118 -0.387069 -0.535693 143 50 39
-0.301395 -0.387088 -0.534945 144 51 40
-0.301671 -0.387107 -0.534197 146 53 42
-0.302614 -0.386479 -0.533889 148 67 52
-0.302890 -0.386498 -0.533142 153 72 57
-0.303167 -0.386517 -0.532396 148 77 63
-0.303443 -0.386536 -0.531649 146 75 61
-0.303719 -0.386554 -0.530903 129 69 65
-0.303996 -0.386573 -0.530156 161 101 97
-0.304934 -0.385945 -0.529859 167 140 134
-0.305210 -0.385964 -0.529114 171 144 138
-0.305486 -0.385983 -0.528369 163 149 141
-0.305762 -0.386002 -0.527624 169 155 147
-0.306037 -0.386020 -0.526879 163 156 146
-0.306973 -0.385392 -0.526591 160 153 143
-0.307248 -0.385411 -0.525847 168 164 155
-0.307523 -0.385430 -0.525104 169 165 156
-0.308456 -0.384802 -0.524822 169 165 156
-0.308731 -0.384820 -0.524080 171 167 158
-0.309005 -0.384839 -0.523338 171 167 156
-0.309280 -0.384858 -0.522596 171 167 156
-0.309555 -0.384876 -0.521854 172 169 155
-0.309829 -0.384895 -0.521113 172 169 155
-0.310104 -0.384914 -0.520371 171 167 156
-0.310378 -0.384932 -0.519629 169 165 154
-0.310653 -0.384951 -0.518887 169 158 149
-0.310928 -0.384970 -0.518145 158 147 138
-0.311202 -0.384988 -0.517403 153 133 125
-0.312128 -0.384360 -0.517140 143 123 115
-0.312402 -0.384378 -0.516399 139 107 101
-0.312676 -0.384397 -0.515659 118 86 80
-0.312950 -0.384415 -0.514919 99 53 45
-0.313224 -0.384434 -0.514179 107 61 53
-0.313498 -0.384453 -0.513438 119 47 36
-0.314421 -0.383824 -0.513185 128 56 45
-0.314694 -0.383842 -0.512447 133 52 37
-0.314321 -0.384509 -0.511218 131 50 35
-0.313948 -0.385175 -0.509985 124 42 32
-0.198580 -0.451232 -0.578432 81 23 23
-0.199639 -0.450614 -0.577810 73 15 15
-0.200698 -0.449996 -0.577192 140 100 105
-0.201755 -0.449378 -0.576576 109 69 74
-0.202812 -0.448759 -0.575963 156 132 136
-0.203867 -0.448141 -0.575354 134 110 114
-0.204921 -0.447522 -0.574747 108 61 62
-0.206693 -0.446262 -0.574440 69 22 23
-0.207744 -0.445644 -0.573841 89 17 15
-0.208794 -0.445025 -0.573245 91 19 17
-0.210561 -0.443764 -0.572953 92 19 17
-0.213044 -0.441863 -0.572970 93 20 18
-0.214088 -0.441243 -0.572388 95 19 18
-0.215849 -0.439983 -0.572115 97 21 20
-0.217606 -0.438722 -0.571848 97 21 20
-0.219362 -0.437461 -0.571587 98 22 21
-0.221830 -0.435558 -0.571642 100 24 23
-0.222866 -0.434938 -0.571083 101 25 24
-0.225328 -0.433035 -0.571154 102 26 23
-0.227074 -0.431773 -0.570919 105 29 26
-0.229530 -0.429869 -0.571007 105 32 28
-0.231983 -0.427965 -0.571104 106 33 29
-0.233720 -0.426703 -0.570891 106 33 29
-0.235456 -0.425441 -0.570684 107 34 30
-0.237189 -0.424178 -0.570483 109 36 32
-0.238920 -0.422915 -0.570288 110 37 33
-0.239940 -0.422294 -0.569775 110 37 33
-0.241667 -0.421031 -0.569591 110 37 33
-0.242683 -0.420410 -0.569085 110 37 33
-0.243699 -0.419789 -0.568582 110 37 33
-0.244714 -0.419168 -0.568082 109 36 32
-0.245727 -0.418547 -0.567585 109 36 32
-0.247445 -0.417283 -0.567426 110 37 33
-0.248455 -0.416661 -0.566937 110 37 33
-0.249465 -0.416040 -0.566451 110 37 33
-0.250473 -0.415418 -0.565969 109 36 32
-0.251480 -0.414796 -0.565489 109 36 32
-0.253188 -0.413532 -0.565355 110 37 33
-0.254193 -0.412910 -0.564883 109 36 32
-0.255897 -0.411646 -0.564759 109 36 32
-0.256899 -0.411024 -0.564295 109 36 32
-0.257899 -0.410401 -0.563834 109 36 32
-0.258898 -0.409779 -0.563375 109 36 32
-0.259896 -0.409157 -0.562920 109 36 32
-0.260892 -0.408534 -0.562468 109 36 32
-0.261888 -0.407912 -0.562020 109 36 32
-0.262883 -0.407289 -0.561574 110 37 33
-0.263876 -0.406666 -0.561131 109 36 32
-0.264868 -0.406044 -0.560692 110 37 33
-0.265859 -0.405421 -0.560255 110 37 33
-0.267544 -0.404155 -0.560184 111 38 34
-0.268532 -0.403532 -0.559755 114 41 37
-0.269519 -0.402909 -0.559330 120 43 36
-0.270505 -0.402286 -0.558907 122 45 38
-0.271490 -0.401662 -0.558488 133 42 35
-0.272474 -0.401039 -0.558071 133 42 35
-0.273456 -0.400415 -0.557658 142 37 28
-0.274437 -0.399792 -0.557248 142 37 28
-0.275418 -0.399168 -0.556841 146 35 26
-0.276397 -0.398545 -0.556437 146 35 26
-0.277375 -0.397921 -0.556036 147 36 27
-0.278351 -0.397297 -0.555638 148 37 28
-0.279327 -0.396673 -0.555243 147 38 28
-0.280301 -0.396049 -0.554851 147 38 28
-0.281275 -0.395425 -0.554463 147 38 28
-0.282247 -0.394801 -0.554077 147 38 28
-0.282532 -0.394821 -0.553308 147 36 27
-0.283502 -0.394196 -0.552927 147 36 27
-0.284471 -0.393572 -0.552549 148 37 28
-0.285440 -0.392948 -0.552174 148 37 28
-0.286407 -0.392323 -0.551803 148 37 28
-0.287372 -0.391699 -0.551434 148 37 28
-0.287654 -0.391718 -0.550672 147 36 27
-0.288619 -0.391093 -0.550308 147 36 27
-0.288900 -0.391112 -0.549548 148 37 28
-0.289863 -0.390487 -0.549189 148 37 28
-0.290824 -0.389863 -0.548833 146 37 27
-0.291104 -0.389882 -0.548076 146 37 27
-0.292064 -0.389257 -0.547724 144 37 27
-0.292343 -0.389276 -0.546968 144 37 27
-0.292623 -0.389295 -0.546213 144 37 27
-0.293581 -0.388669 -0.545867 144 37 27
-0.294537 -0.388044 -0.545525 143 36 26
-0.294815 -0.388063 -0.544772 143 36 26
-0.295094 -0.388082 -0.544020 142 35 25
-0.295372 -0.388101 -0.543267 142 35 25
-0.295651 -0.388120 -0.542514 140 35 26
-0.296604 -0.387495 -0.542182 137 32 23
-0.296882 -0.387513 -0.541430 133 34 25
-0.297833 -0.386888 -0.541102 133 34 25
-0.298110 -0.386907 -0.540353 130 39 30
-0.299060 -0.386281 -0.540029 138 47 38
-0.299336 -0.386300 -0.539281 137 49 39
-0.300284 -0.385674 -0.538962 136 48 38
-0.300560 -0.385693 -0.538215 136 46 34
-0.300837 -0.385712 -0.537469 136 46 34
-0.301113 -0.385730 -0.536722 140 47 36
-0.301389 -0.385749 -0.535976 141 48 37
-0.301666 -0.385768 -0.535230 142 49 38
-0.301942 -0.385787 -0.534483 143 50 39
-0.302885 -0.385161 -0.534176 143 56 43
-0.303161 -0.385179 -0.533432 146 59 46
-0.304102 -0.384553 -0.533129 150 71 58
-0.304377 -0.384572 -0.532386 153 74 61
-0.304652 -0.384590 -0.531643 147 72 62
-0.304927 -0.384609 -0.530899 148 73 63
-0.305203 -0.384628 -0.530156 128 73 72
-0.305478 -0.384647 -0.529413 183 128 127
-0.306415 -0.384020 -0.529121 193 170 165
-0.306690 -0.384039 -0.528380 188 165 160
-0.306964 -0.384057 -0.527638 184 170 162
-0.307239 -0.384076 -0.526896 184 170 162
-0.307513 -0.384095 -0.526154 176 167 160
-0.308447 -0.383468 -0.525872 176 167 160
-0.308721 -0.383487 -0.525132 174 163 156
-0.308995 -0.383505 -0.524392 163 152 145
-0.309269 -0.383524 -0.523651 155 144 135
-0.310200 -0.382897 -0.523377 161 150 141
-0.310474 -0.382915 -0.522638 175 168 158
-0.310747 -0.382934 -0.521900 175 168 158
-0.311021 -0.382953 -0.521161 158 154 147
-0.311294 -0.382971 -0.520422 115 111 104
-0.311568 -0.382990 -0.519683 112 101 94
-0.311841 -0.383008 -0.518945 121 110 103
-0.312115 -0.383027 -0.518206 137 121 114
-0.312388 -0.383046 -0.517467 143 127 120
-0.312661 -0.383064 -0.516729 155 140 130
-0.312935 -0.383083 -0.515990 166 151 141
-0.313208 -0.383101 -0.515251 181 163 154
-0.313482 -0.383120 -0.514512 176 158 149
-0.313755 -0.383138 -0.513774 156 115 107
-0.314029 -0.383157 -0.513035 99 58 50
-0.314302 -0.383176 -0.512296 123 52 36
-0.313928 -0.383840 -0.511067 129 58 42
-0.314202 -0.383859 -0.510326 138 57 40
-0.314476 -0.383878 -0.509586 127 46 29
-0.314750 -0.383896 -0.508846 119 40 29
-0.197373 -0.451052 -0.577962 81 23 23
-0.198434 -0.450435 -0.577338 73 15 15
-0.199494 -0.449818 -0.576718 144 101 107
-0.200553 -0.449201 -0.576101 97 54 60
-0.201611 -0.448584 -0.575487 154 127 132
-0.202667 -0.447967 -0.574877 87 60 65
-0.203722 -0.447350 -0.574269 130 99 101
-0.205497 -0.446093 -0.573961 129 98 100
-0.206550 -0.445476 -0.573361 70 12 12
-0.207601 -0.444858 -0.572764 79 21 21
-0.209370 -0.443601 -0.572471 87 14 17
-0.211856 -0.441703 -0.572487 92 19 22
-0.213620 -0.440445 -0.572208 95 19 18
-0.214664 -0.439828 -0.571630 97 21 20
-0.216424 -0.438569 -0.571362 98 20 20
-0.218182 -0.437311 -0.571100 99 21 21
-0.220653 -0.435413 -0.571154 100 22 22
-0.222405 -0.434154 -0.570906 101 23 23
-0.224870 -0.432255 -0.570978 100 24 21
-0.225904 -0.431636 -0.570429 104 28 25
-0.227650 -0.430377 -0.570199 106 30 27
-0.230818 -0.427837 -0.570612 107 31 28
-0.232558 -0.426578 -0.570398 106 30 27
-0.234296 -0.425318 -0.570190 108 32 29
-0.236031 -0.424058 -0.569989 107 34 30
-0.237765 -0.422798 -0.569793 109 36 32
-0.239495 -0.421538 -0.569604 109 36 32
-0.241224 -0.420278 -0.569421 110 37 33
-0.242242 -0.419658 -0.568915 110 37 33
-0.243258 -0.419039 -0.568413 110 37 33
-0.244273 -0.418419 -0.567913 109 36 32
-0.245288 -0.417799 -0.567417 109 36 32
-0.247007 -0.416538 -0.567258 110 37 33
-0.248018 -0.415918 -0.566769 110 37 33
-0.249028 -0.415298 -0.566284 110 37 33
-0.250038 -0.414677 -0.565801 109 36 32
-0.251045 -0.414057 -0.565322 110 37 33
-0.252756 -0.412796 -0.565188 110 37 33
-0.253761 -0.412175 -0.564717 109 36 32
-0.255467 -0.410913 -0.564594 110 37 33
-0.256469 -0.410293 -0.564130 109 36 32
-0.257470 -0.409672 -0.563669 109 36 32
-0.258470 -0.409051 -0.563211 109 36 32
-0.259469 -0.408430 -0.562756 109 36 32
-0.260466 -0.407809 -0.562305 109 36 32
-0.261463 -0.407188 -0.561856 109 36 32
-0.262458 -0.406566 -0.561411 110 37 33
-0.263452 -0.405945 -0.560968 109 36 32
-0.264445 -0.405324 -0.560529 109 36 32
-0.265437 -0.404702 -0.560093 109 36 32
-0.267124 -0.403439 -0.560023 109 36 32
-0.268113 -0.402818 -0.559594 111 38 34
-0.269101 -0.402196 -0.559169 115 40 34
-0.270087 -0.401574 -0.558747 116 41 35
-0.271073 -0.400952 -0.558327 124 44 36
-0.272057 -0.400330 -0.557911 128 48 40
-0.273041 -0.399708 -0.557498 137 47 35
-0.274023 -0.399086 -0.557088 132 42 30
-0.275004 -0.398464 -0.556682 143 36 26
-0.275984 -0.397842 -0.556278 143 36 26
-0.276962 -0.397219 -0.555877 146 37 27
-0.277940 -0.396597 -0.555480 146 37 27
-0.278916 -0.395974 -0.555085 146 37 27
-0.279891 -0.395352 -0.554694 147 38 28
-0.280866 -0.394729 -0.554306 147 38 28
-0.281839 -0.394106 -0.553920 147 38 28
-0.282810 -0.393484 -0.553538 148 37 28
-0.283095 -0.393503 -0.552770 147 36 27
-0.284065 -0.392880 -0.552393 147 36 27
-0.285034 -0.392257 -0.552018 148 37 28
-0.286002 -0.391634 -0.551647 148 37 28
-0.286968 -0.391011 -0.551279 148 37 28
-0.287250 -0.391030 -0.550517 147 36 27
-0.288215 -0.390407 -0.550154 147 36 27
-0.289179 -0.389783 -0.549793 148 37 28
-0.290142 -0.389160 -0.549436 147 36 27
-0.291103 -0.388536 -0.549081 146 37 27
-0.291383 -0.388555 -0.548326 147 38 28
-0.291663 -0.388574 -0.547570 144 37 27
-0.292622 -0.387951 -0.547222 144 37 27
-0.292901 -0.387970 -0.546468 144 37 27
-0.293859 -0.387346 -0.546124 144 37 27
-0.294137 -0.387365 -0.545372 143 36 26
-0.295093 -0.386741 -0.545033 144 37 27
-0.295371 -0.386760 -0.544282 143 36 26
-0.296325 -0.386136 -0.543948 142 35 25
-0.296603 -0.386155 -0.543198 142 35 25
-0.296880 -0.386174 -0.542448 140 33 23
-0.297832 -0.385549 -0.542120 139 34 25
-0.298109 -0.385568 -0.541372 136 31 22
-0.298386 -0.385587 -0.540624 131 34 24
-0.299335 -0.384963 -0.540303 136 39 29
-0.299612 -0.384981 -0.539556 144 56 46
-0.299888 -0.385000 -0.538810 142 54 44
-0.300835 -0.384376 -0.538494 134 49 35
-0.301111 -0.384394 -0.537749 133 48 34
-0.301387 -0.384413 -0.537004 138 48 36
-0.301663 -0.384432 -0.536259 139 49 37
-0.301938 -0.384451 -0.535514 139 49 37
-0.302214 -0.384469 -0.534770 140 50 38
-0.302490 -0.384488 -0.534025 142 52 40
-0.303432 -0.383863 -0.533721 145 55 43
-0.303708 -0.383882 -0.532978 144 62 47
-0.303983 -0.383901 -0.532235 147 65 50
-0.304258 -0.383919 -0.531491 151 72 59
-0.305198 -0.383294 -0.531196 153 74 61
-0.305472 -0.383313 -0.530454 140 72 62
-0.305747 -0.383332 -0.529712 140 72 62
-0.306685 -0.382707 -0.529423 151 101 98
-0.306959 -0.382725 -0.528682 182 132 129
-0.307233 -0.382744 -0.527942 153 123 118
-0.307507 -0.382763 -0.527202 134 104 99
-0.307781 -0.382781 -0.526462 123 104 98
-0.308715 -0.382156 -0.526181 119 100 94
-0.308988 -0.382174 -0.525443 116 100 93
-0.309262 -0.382193 -0.524704 120 104 97
-0.309535 -0.382211 -0.523965 128 119 112
-0.309809 -0.382230 -0.523227 152 143 136
-0.310082 -0.382249 -0.522488 171 167 158
-0.310355 -0.382267 -0.521749 173 169 160
-0.311285 -0.381642 -0.521481 172 168 161
-0.311558 -0.381660 -0.520744 170 166 159
-0.311831 -0.381679 -0.520007 174 167 159
-0.312104 -0.381697 -0.519270 177 170 162
-0.312377 -0.381716 -0.518533 176 167 160
-0.312649 -0.381734 -0.517795 175 166 159
-0.312922 -0.381753 -0.517058 179 165 157
-0.313195 -0.381771 -0.516321 178 164 156
-0.313468 -0.381790 -0.515584 177 164 153
-0.313741 -0.381808 -0.514847 175 162 151
-0.313363 -0.382472 -0.513623 181 160 147
-0.313637 -0.382490 -0.512884 154 133 120
-0.313910 -0.382509 -0.512146 106 59 46
-0.314184 -0.382527 -0.511407 101 54 41
-0.314457 -0.382546 -0.510668 130 57 39
-0.314731 -0.382565 -0.509929 130 57 39
-0.314357 -0.383228 -0.508695 131 53 37
-0.314631 -0.383247 -0.507955 122 44 28
-0.314905 -0.383265 -0.507214 118 39 26
-0.196165 -0.450868 -0.577490 83 23 21
-0.197227 -0.450253 -0.576866 83 23 21
-0.198289 -0.449638 -0.576244 107 55 62
-0.199349 -0.449022 -0.575626 97 45 52
-0.200408 -0.448407 -0.575011 152 120 127
-0.201466 -0.447791 -0.574399 82 50 57
-0.203245 -0.446537 -0.574085 139 115 119
-0.204300 -0.445921 -0.573481 153 129 133
-0.205353 -0.445305 -0.572880 71 35 37
-0.206406 -0.444689 -0.572282 144 108 110
-0.208178 -0.443435 -0.571988 116 67 66
-0.210666 -0.441541 -0.572003 78 29 28
-0.212432 -0.440286 -0.571723 82 17 15
-0.214196 -0.439031 -0.571450 79 14 12
-0.215958 -0.437776 -0.571182 87 14 15
-0.217717 -0.436520 -0.570921 92 19 20
-0.220191 -0.434626 -0.570977 98 21 23
-0.221945 -0.433370 -0.570729 95 18 20
-0.224412 -0.431475 -0.570802 97 24 22
-0.226161 -0.430219 -0.570568 98 25 23
-0.228622 -0.428324 -0.570658 99 26 24
-0.230366 -0.427067 -0.570438 103 30 28
-0.232108 -0.425810 -0.570225 104 31 27
-0.233847 -0.424554 -0.570018 105 32 28
-0.235584 -0.423297 -0.569817 106 33 29
-0.237319 -0.422040 -0.569622 109 36 32
-0.239051 -0.420782 -0.569433 109 36 32
-0.240781 -0.419525 -0.569251 110 37 33
-0.241800 -0.418907 -0.568745 110 37 33
-0.242817 -0.418288 -0.568243 110 37 33
-0.243833 -0.417670 -0.567744 109 36 32
-0.244848 -0.417051 -0.567248 110 37 33
-0.246569 -0.415793 -0.567090 110 37 33
-0.247581 -0.415174 -0.566602 110 37 33
-0.248592 -0.414556 -0.566116 110 37 33
-0.249602 -0.413937 -0.565634 109 36 32
-0.250611 -0.413318 -0.565155 110 37 33
-0.252323 -0.412059 -0.565022 110 37 33
-0.253329 -0.411440 -0.564551 109 36 32
-0.255037 -0.410181 -0.564428 110 37 33
-0.256040 -0.409562 -0.563965 109 36 32
-0.257041 -0.408942 -0.563504 109 36 32
-0.258042 -0.408323 -0.563047 109 36 32
-0.259042 -0.407703 -0.562592 107 34 30
-0.260040 -0.407083 -0.562141 109 36 32
-0.261037 -0.406464 -0.561693 109 36 32
-0.262033 -0.405844 -0.561247 109 36 32
-0.263028 -0.405224 -0.560805 109 36 32
-0.264022 -0.404604 -0.560367 107 34 30
-0.265015 -0.403984 -0.559931 109 36 32
-0.266703 -0.402724 -0.559861 109 36 32
-0.267693 -0.402103 -0.559433 110 37 33
-0.268682 -0.401483 -0.559008 111 38 34
-0.269669 -0.400863 -0.558586 112 39 35
-0.270656 -0.400242 -0.558167 118 43 37
-0.271641 -0.399622 -0.557751 125 50 44
-0.272625 -0.399001 -0.557339 129 53 41
-0.273608 -0.398380 -0.556929 124 48 36
-0.274590 -0.397759 -0.556522 134 41 30
-0.275570 -0.397139 -0.556119 133 40 29
-0.276550 -0.396518 -0.555719 143 36 26
-0.277528 -0.395897 -0.555322 143 36 26
-0.278506 -0.395276 -0.554927 144 37 27
-0.279482 -0.394654 -0.554536 145 38 28
-0.280457 -0.394033 -0.554148 144 37 27
