ply
format ascii 1.0
element vertex 1182
property float x
property float y
property float z
property uchar red
property uchar green
property uchar blue
end_header
-0.161058 -0.215941 -0.533476 125 32 21
-0.161364 -0.215964 -0.534455 123 33 21
-0.161670 -0.215988 -0.535433 122 32 20
-0.161975 -0.216011 -0.536411 118 27 18
-0.162281 -0.216035 -0.537390 116 25 16
-0.162587 -0.216058 -0.538368 115 27 19
-0.162893 -0.216082 -0.539346 115 27 19
-0.163198 -0.216105 -0.540325 106 22 15
-0.163504 -0.216128 -0.541303 105 21 14
-0.163810 -0.216152 -0.542282 105 22 17
-0.165017 -0.216558 -0.543039 106 23 18
-0.164421 -0.216199 -0.544238 105 28 21
-0.164727 -0.216222 -0.545217 108 31 24
-0.165033 -0.216246 -0.546195 108 40 32
-0.165339 -0.216269 -0.547174 115 47 39
-0.165644 -0.216292 -0.548152 108 62 54
-0.165950 -0.216316 -0.549130 110 64 56
-0.166256 -0.216339 -0.550109 101 75 71
-0.166562 -0.216363 -0.551087 112 86 82
-0.166867 -0.216386 -0.552065 116 95 92
-0.167173 -0.216410 -0.553044 118 97 94
-0.167479 -0.216433 -0.554022 119 96 93
-0.167785 -0.216457 -0.555001 114 91 88
-0.167183 -0.216097 -0.556180 113 87 85
-0.168396 -0.216503 -0.556957 119 93 91
-0.167793 -0.216143 -0.558133 132 108 110
-0.168098 -0.216167 -0.559110 118 94 96
-0.167494 -0.215807 -0.560281 123 95 96
-0.167799 -0.215830 -0.561256 128 100 101
-0.167193 -0.215470 -0.562423 135 108 111
-0.167497 -0.215493 -0.563396 156 129 132
-0.167801 -0.215516 -0.564370 169 152 152
-0.154267 -0.216029 -0.494686 95 23 16
-0.155454 -0.216432 -0.495377 101 21 15
-0.155763 -0.216456 -0.496365 104 24 18
-0.156071 -0.216480 -0.497353 108 24 17
-0.156380 -0.216503 -0.498340 108 24 17
-0.156689 -0.216527 -0.499328 110 23 17
-0.156997 -0.216551 -0.500316 109 22 16
-0.157306 -0.216574 -0.501304 111 22 17
-0.155850 -0.215838 -0.502860 111 22 17
-0.156158 -0.215861 -0.503845 111 22 17
-0.156465 -0.215885 -0.504829 113 24 19
-0.156773 -0.215909 -0.505814 115 23 19
-0.157965 -0.216312 -0.506521 115 23 19
-0.158273 -0.216336 -0.507507 116 25 18
-0.158582 -0.216360 -0.508493 116 25 18
-0.158890 -0.216383 -0.509480 116 25 18
-0.158312 -0.216027 -0.510737 116 25 18
-0.158619 -0.216050 -0.511722 115 24 17
-0.158927 -0.216074 -0.512707 115 24 17
-0.159235 -0.216097 -0.513691 115 24 17
-0.159542 -0.216121 -0.514676 117 26 19
-0.159850 -0.216145 -0.515661 118 24 18
-0.159269 -0.215788 -0.516908 117 23 17
-0.159576 -0.215811 -0.517891 118 24 18
-0.159883 -0.215835 -0.518874 118 24 18
-0.160190 -0.215858 -0.519857 118 24 18
-0.160497 -0.215882 -0.520840 118 24 18
-0.160805 -0.215905 -0.521823 118 24 18
-0.160220 -0.215548 -0.523059 118 24 18
-0.160526 -0.215572 -0.524040 119 25 19
-0.160833 -0.215595 -0.525022 119 25 19
-0.161140 -0.215619 -0.526003 119 25 19
-0.161447 -0.215642 -0.526985 120 26 20
-0.161753 -0.215666 -0.527967 120 26 20
-0.162060 -0.215689 -0.528948 120 26 20
-0.161471 -0.215332 -0.530171 121 27 19
-0.161777 -0.215355 -0.531151 120 26 18
-0.162084 -0.215379 -0.532131 119 25 17
-0.161493 -0.215021 -0.533348 119 25 17
-0.161799 -0.215045 -0.534326 120 26 18
-0.162104 -0.215068 -0.535305 119 25 17
-0.163309 -0.215473 -0.536051 118 24 16
-0.162716 -0.215115 -0.537262 117 23 15
-0.163021 -0.215138 -0.538240 117 26 19
-0.163327 -0.215162 -0.539218 116 25 18
-0.163633 -0.215185 -0.540197 110 21 16
-0.163939 -0.215209 -0.541175 109 20 15
-0.164244 -0.215232 -0.542154 110 23 17
-0.164550 -0.215255 -0.543132 110 23 17
-0.164856 -0.215279 -0.544110 109 26 21
-0.165162 -0.215302 -0.545089 112 29 24
-0.165467 -0.215326 -0.546067 106 41 32
-0.165773 -0.215349 -0.547045 111 46 37
-0.166079 -0.215373 -0.548024 98 57 49
-0.166385 -0.215396 -0.549002 102 61 53
-0.166690 -0.215420 -0.549981 99 76 75
-0.166996 -0.215443 -0.550959 112 89 88
-0.167302 -0.215466 -0.551937 117 96 93
-0.167608 -0.215490 -0.552916 119 98 95
-0.167913 -0.215513 -0.553894 121 95 93
-0.168219 -0.215537 -0.554873 116 90 88
-0.168525 -0.215560 -0.555851 105 82 79
-0.168831 -0.215584 -0.556829 139 116 113
-0.168227 -0.215225 -0.558005 138 115 114
-0.168532 -0.215248 -0.558982 117 94 93
-0.167927 -0.214890 -0.560153 127 94 97
-0.168232 -0.214913 -0.561129 133 100 103
-0.168537 -0.214936 -0.562104 132 104 105
-0.167929 -0.214578 -0.563269 158 130 131
-0.168234 -0.214601 -0.564243 166 149 151
-0.152902 -0.214653 -0.491900 85 23 24
-0.154088 -0.215054 -0.492584 83 21 22
-0.154397 -0.215078 -0.493571 91 19 12
-0.154705 -0.215102 -0.494557 92 20 13
-0.155893 -0.215504 -0.495248 98 21 14
-0.156201 -0.215527 -0.496235 100 23 16
-0.156510 -0.215551 -0.497223 106 23 16
-0.156819 -0.215575 -0.498211 105 22 15
-0.157127 -0.215598 -0.499199 106 22 15
-0.157436 -0.215622 -0.500187 106 22 15
-0.157745 -0.215646 -0.501175 108 21 15
-0.156287 -0.214912 -0.502731 109 22 16
-0.156595 -0.214936 -0.503716 109 22 16
-0.156903 -0.214959 -0.504700 110 23 17
-0.157210 -0.214983 -0.505685 111 22 17
-0.158403 -0.215385 -0.506392 110 21 16
-0.158711 -0.215409 -0.507378 113 21 17
-0.159019 -0.215432 -0.508364 113 21 17
-0.159328 -0.215456 -0.509350 113 21 17
-0.158749 -0.215101 -0.510608 115 23 19
-0.159057 -0.215124 -0.511593 113 21 17
-0.159364 -0.215148 -0.512578 113 21 17
-0.159672 -0.215172 -0.513563 113 21 17
-0.159980 -0.215195 -0.514547 115 23 19
-0.160287 -0.215219 -0.515532 113 21 17
-0.159705 -0.214863 -0.516779 113 21 17
-0.160012 -0.214887 -0.517762 115 20 17
-0.160320 -0.214910 -0.518745 115 20 17
-0.160627 -0.214934 -0.519728 115 20 17
-0.160934 -0.214958 -0.520711 117 22 19
-0.161241 -0.214981 -0.521694 115 20 17
-0.161548 -0.215005 -0.522677 115 20 17
-0.160962 -0.214649 -0.523912 117 22 19
-0.161269 -0.214672 -0.524893 117 22 19
-0.161576 -0.214696 -0.525875 117 22 19
-0.161882 -0.214720 -0.526856 118 23 20
-0.162189 -0.214743 -0.527838 118 23 20
-0.162496 -0.214767 -0.528820 118 23 20
-0.162803 -0.214790 -0.529801 118 24 18
-0.163109 -0.214814 -0.530783 118 24 18
-0.163416 -0.214837 -0.531764 117 23 17
-0.162825 -0.214481 -0.532983 118 24 18
-0.163131 -0.214504 -0.533963 117 23 17
-0.163437 -0.214528 -0.534943 118 24 18
-0.163744 -0.214551 -0.535923 117 23 17
-0.164050 -0.214575 -0.536903 115 21 15
-0.164356 -0.214598 -0.537883 115 24 17
-0.163762 -0.214242 -0.539090 116 25 18
-0.164067 -0.214265 -0.540069 112 21 14
-0.164373 -0.214289 -0.541047 111 20 13
-0.164679 -0.214312 -0.542025 111 23 15
-0.164985 -0.214336 -0.543004 111 23 15
-0.165290 -0.214359 -0.543982 110 26 19
-0.165596 -0.214383 -0.544961 114 30 23
-0.165902 -0.214406 -0.545939 108 40 32
-0.166208 -0.214429 -0.546917 113 45 37
-0.166513 -0.214453 -0.547896 97 56 48
-0.166819 -0.214476 -0.548874 102 61 53
-0.167125 -0.214500 -0.549852 98 74 76
-0.167431 -0.214523 -0.550831 112 88 90
-0.167736 -0.214547 -0.551809 116 97 93
-0.168042 -0.214570 -0.552788 117 98 94
-0.168348 -0.214594 -0.553766 119 93 91
-0.168654 -0.214617 -0.554744 115 89 87
-0.168959 -0.214640 -0.555723 110 87 86
-0.169265 -0.214664 -0.556701 154 131 130
-0.169571 -0.214687 -0.557680 127 103 105
-0.168966 -0.214330 -0.558854 117 93 95
-0.169271 -0.214354 -0.559831 127 94 97
-0.168665 -0.213996 -0.561001 131 98 101
-0.168970 -0.214020 -0.561976 126 95 97
-0.168362 -0.213662 -0.563141 165 134 136
-0.169579 -0.214066 -0.563927 164 147 149
-0.153340 -0.213727 -0.491771 84 22 23
-0.154526 -0.214127 -0.492455 82 20 21
-0.154834 -0.214151 -0.493441 91 18 14
-0.155143 -0.214174 -0.494428 91 18 14
-0.156331 -0.214575 -0.495118 95 18 11
-0.156640 -0.214599 -0.496106 98 21 14
-0.156949 -0.214622 -0.497094 104 21 14
-0.157257 -0.214646 -0.498082 104 21 14
-0.157566 -0.214670 -0.499070 104 21 16
-0.155226 -0.213562 -0.500920 104 21 16
-0.155534 -0.213586 -0.501904 105 21 16
-0.156725 -0.213986 -0.502602 106 22 17
-0.157032 -0.214010 -0.503587 108 21 17
-0.157340 -0.214034 -0.504572 108 21 17
-0.157648 -0.214057 -0.505556 109 20 15
-0.158841 -0.214458 -0.506263 109 20 15
-0.159149 -0.214482 -0.507249 110 21 16
-0.159457 -0.214505 -0.508235 110 21 16
-0.159766 -0.214529 -0.509221 110 21 16
-0.160962 -0.214930 -0.509936 110 21 16
-0.160382 -0.214576 -0.511194 110 21 16
-0.160690 -0.214600 -0.512180 111 22 17
-0.160109 -0.214246 -0.513434 111 22 17
-0.160417 -0.214270 -0.514418 111 22 17
-0.160725 -0.214293 -0.515403 113 21 17
-0.161032 -0.214317 -0.516388 112 20 16
-0.161340 -0.214340 -0.517372 112 20 16
-0.160756 -0.213986 -0.518616 112 20 16
-0.161063 -0.214010 -0.519599 112 20 16
-0.161371 -0.214033 -0.520583 112 20 16
-0.161678 -0.214057 -0.521566 112 20 16
-0.161091 -0.213703 -0.522802 112 20 16
-0.161398 -0.213726 -0.523783 113 21 17
-0.161705 -0.213750 -0.524765 113 21 17
-0.162012 -0.213773 -0.525746 115 20 17
-0.162318 -0.213797 -0.526728 115 20 17
-0.162625 -0.213820 -0.527709 115 20 17
-0.162932 -0.213844 -0.528691 115 20 17
-0.163239 -0.213867 -0.529673 117 22 19
-0.163545 -0.213891 -0.530654 117 22 19
-0.163852 -0.213914 -0.531636 115 21 15
-0.163260 -0.213560 -0.532854 115 21 15
-0.163566 -0.213583 -0.533834 115 21 15
-0.163873 -0.213607 -0.534814 117 23 17
-0.164179 -0.213630 -0.535794 115 21 15
-0.164485 -0.213654 -0.536774 115 21 15
-0.164791 -0.213677 -0.537754 115 24 17
-0.165098 -0.213701 -0.538734 115 24 17
-0.165404 -0.213724 -0.539714 112 21 14
-0.164808 -0.213369 -0.540919 111 20 13
-0.165113 -0.213392 -0.541897 110 21 16
-0.165419 -0.213416 -0.542876 111 22 17
-0.165725 -0.213439 -0.543854 112 25 19
-0.166031 -0.213463 -0.544832 115 28 22
-0.166336 -0.213486 -0.545811 109 38 29
-0.166642 -0.213510 -0.546789 115 44 35
-0.166948 -0.213533 -0.547768 99 58 52
-0.167254 -0.213557 -0.548746 103 62 56
-0.167559 -0.213580 -0.549724 101 79 81
-0.167865 -0.213603 -0.550703 113 91 93
-0.168171 -0.213627 -0.551681 116 97 93
-0.168477 -0.213650 -0.552660 115 96 92
-0.168782 -0.213674 -0.553638 115 89 87
-0.169088 -0.213697 -0.554616 113 87 85
-0.169394 -0.213721 -0.555595 115 89 89
-0.169699 -0.213744 -0.556573 144 118 118
-0.170005 -0.213768 -0.557551 127 99 100
-0.170311 -0.213791 -0.558530 120 92 93
-0.169705 -0.213435 -0.559703 127 94 97
-0.169098 -0.213079 -0.560873 130 97 100
-0.169403 -0.213103 -0.561848 124 93 93
-0.169707 -0.213126 -0.562824 173 142 142
-0.170012 -0.213149 -0.563799 161 144 146
-0.152591 -0.212403 -0.490961 50 34 39
-0.153777 -0.212801 -0.491642 82 21 24
-0.154964 -0.213200 -0.492326 81 20 23
-0.155272 -0.213224 -0.493312 90 17 13
-0.155581 -0.213247 -0.494298 90 17 13
-0.156770 -0.213646 -0.494989 95 18 11
-0.157079 -0.213670 -0.495977 98 21 14
-0.157387 -0.213694 -0.496965 100 20 14
-0.157696 -0.213717 -0.497952 101 21 15
-0.158005 -0.213741 -0.498940 102 19 14
-0.155663 -0.212638 -0.500792 103 20 15
-0.155970 -0.212662 -0.501775 104 21 16
-0.156277 -0.212685 -0.502758 105 22 17
-0.157470 -0.213084 -0.503458 105 21 16
-0.157777 -0.213108 -0.504443 105 21 16
-0.158085 -0.213132 -0.505427 108 21 15
-0.159279 -0.213531 -0.506133 107 20 14
-0.159587 -0.213554 -0.507120 108 21 15
-0.159895 -0.213578 -0.508106 108 21 15
-0.160204 -0.213602 -0.509092 108 21 15
-0.161400 -0.214001 -0.509806 109 22 16
-0.161709 -0.214025 -0.510794 108 21 15
-0.162018 -0.214049 -0.511782 109 22 16
-0.161436 -0.213696 -0.513037 109 22 16
-0.160854 -0.213344 -0.514289 109 22 16
-0.161162 -0.213367 -0.515274 110 21 16
-0.161470 -0.213391 -0.516259 109 20 15
-0.161777 -0.213415 -0.517243 110 21 16
-0.162085 -0.213438 -0.518228 110 21 16
-0.162393 -0.213462 -0.519213 112 20 16
-0.162700 -0.213485 -0.520197 112 20 16
-0.162114 -0.213133 -0.521437 112 20 16
-0.161527 -0.212780 -0.522673 112 20 16
-0.161834 -0.212803 -0.523655 112 20 16
-0.162141 -0.212827 -0.524636 112 20 16
-0.162448 -0.212850 -0.525618 112 20 16
-0.162754 -0.212874 -0.526599 112 20 16
-0.163061 -0.212898 -0.527581 112 20 16
-0.163368 -0.212921 -0.528563 112 20 16
-0.163674 -0.212945 -0.529544 113 21 17
-0.163981 -0.212968 -0.530526 113 21 17
-0.164288 -0.212992 -0.531507 112 20 16
-0.164595 -0.213015 -0.532489 113 21 17
-0.164901 -0.213039 -0.533470 114 19 16
-0.165208 -0.213062 -0.534452 115 20 17
-0.165515 -0.213086 -0.535433 115 21 15
-0.165821 -0.213109 -0.536415 114 20 14
-0.166128 -0.213133 -0.537396 113 22 15
-0.165533 -0.212779 -0.538606 113 22 15
-0.165839 -0.212803 -0.539586 112 21 14
-0.166145 -0.212826 -0.540566 111 20 13
-0.166451 -0.212850 -0.541546 112 21 14
-0.166758 -0.212873 -0.542526 112 21 14
-0.166159 -0.212520 -0.543726 110 23 17
-0.166465 -0.212543 -0.544704 113 26 20
-0.166771 -0.212566 -0.545683 109 37 30
-0.167077 -0.212590 -0.546661 116 44 37
-0.167382 -0.212613 -0.547640 99 57 54
-0.167688 -0.212637 -0.548618 101 59 56
-0.168901 -0.213038 -0.549385 110 90 91
-0.168300 -0.212684 -0.550575 119 99 100
-0.168605 -0.212707 -0.551553 116 100 97
-0.168911 -0.212731 -0.552531 112 96 93
-0.169217 -0.212754 -0.553510 114 88 88
-0.170432 -0.213155 -0.554285 110 84 84
-0.170739 -0.213178 -0.555265 118 90 91
-0.171045 -0.213202 -0.556245 130 102 103
-0.170440 -0.212848 -0.557423 122 91 93
-0.170745 -0.212871 -0.558402 120 89 91
-0.170139 -0.212517 -0.559575 127 91 95
-0.170444 -0.212540 -0.560552 129 93 97
-0.170749 -0.212564 -0.561529 121 93 92
-0.171968 -0.212965 -0.562315 182 154 153
-0.170445 -0.212233 -0.563671 149 134 133
-0.154214 -0.211876 -0.491513 71 12 15
-0.155402 -0.212273 -0.492197 79 20 23
-0.155710 -0.212296 -0.493183 90 17 13
-0.156019 -0.212320 -0.494169 90 17 13
-0.157209 -0.212718 -0.494860 94 19 11
-0.157517 -0.212741 -0.495847 97 22 14
-0.157826 -0.212765 -0.496835 100 23 16
-0.158135 -0.212789 -0.497823 99 22 15
-0.158443 -0.212812 -0.498811 100 20 14
-0.156100 -0.211714 -0.500663 101 21 15
-0.156407 -0.211737 -0.501646 101 21 15
-0.156714 -0.211761 -0.502629 102 22 16
-0.157021 -0.211785 -0.503612 103 20 15
-0.158214 -0.212182 -0.504314 104 21 16
-0.158522 -0.212206 -0.505298 105 21 16
-0.159717 -0.212604 -0.506004 105 21 16
-0.160025 -0.212627 -0.506991 106 22 15
-0.160333 -0.212651 -0.507977 106 22 15
-0.160642 -0.212675 -0.508963 106 22 15
-0.161839 -0.213073 -0.509677 107 23 16
-0.162148 -0.213096 -0.510665 107 20 14
-0.162456 -0.213120 -0.511653 108 21 15
-0.161874 -0.212769 -0.512908 108 21 15
-0.162183 -0.212793 -0.513894 109 22 16
-0.162491 -0.212816 -0.514881 108 21 15
-0.161907 -0.212465 -0.516130 108 21 15
-0.162215 -0.212489 -0.517114 108 21 15
-0.162522 -0.212512 -0.518099 109 22 16
-0.162830 -0.212536 -0.519084 110 21 16
-0.163138 -0.212560 -0.520068 109 20 15
-0.162551 -0.212208 -0.521308 110 21 16
-0.161963 -0.211857 -0.522545 110 21 16
-0.162270 -0.211881 -0.523526 110 21 16
-0.162577 -0.211904 -0.524508 110 21 16
-0.162883 -0.211928 -0.525489 111 19 15
-0.163190 -0.211951 -0.526471 112 20 16
-0.163497 -0.211975 -0.527452 112 20 16
-0.163804 -0.211998 -0.528434 112 20 16
-0.164110 -0.212022 -0.529416 112 20 16
-0.164417 -0.212045 -0.530397 112 20 16
-0.164724 -0.212069 -0.531379 112 20 16
-0.165030 -0.212092 -0.532360 112 20 16
-0.165337 -0.212116 -0.533342 114 19 16
-0.165644 -0.212139 -0.534323 114 19 16
-0.165951 -0.212163 -0.535305 114 20 14
-0.166257 -0.212186 -0.536286 114 20 14
-0.166564 -0.212210 -0.537268 114 20 14
-0.166871 -0.212233 -0.538249 114 20 14
-0.167178 -0.212257 -0.539231 112 21 14
-0.167484 -0.212280 -0.540212 111 20 13
-0.166887 -0.211928 -0.541417 111 20 13
-0.167193 -0.211952 -0.542397 112 21 14
-0.167499 -0.211975 -0.543377 110 21 16
-0.167805 -0.211999 -0.544357 113 24 19
-0.168112 -0.212022 -0.545337 106 33 29
-0.168418 -0.212046 -0.546317 112 39 35
-0.168724 -0.212069 -0.547297 93 54 52
-0.169030 -0.212093 -0.548277 115 76 74
-0.169337 -0.212116 -0.549257 123 107 104
-0.169643 -0.212140 -0.550237 124 108 105
-0.169949 -0.212163 -0.551217 124 108 105
-0.170255 -0.212187 -0.552197 115 99 96
-0.170561 -0.212210 -0.553177 115 94 93
-0.170868 -0.212234 -0.554157 110 89 88
-0.171174 -0.212257 -0.555137 117 91 91
-0.172392 -0.212657 -0.555917 120 94 94
-0.172699 -0.212680 -0.556898 116 80 84
-0.173005 -0.212704 -0.557880 116 80 84
-0.171486 -0.211975 -0.559252 122 82 87
-0.171791 -0.211998 -0.560230 125 85 90
-0.172097 -0.212022 -0.561209 125 97 96
-0.173318 -0.212421 -0.561997 187 159 158
-0.173624 -0.212445 -0.562977 138 126 126
-0.154652 -0.210950 -0.491384 66 7 12
-0.155840 -0.211346 -0.492068 79 20 25
-0.156148 -0.211369 -0.493054 89 17 15
-0.156457 -0.211393 -0.494040 91 19 17
-0.157647 -0.211789 -0.494730 95 23 14
-0.157956 -0.211813 -0.495718 100 28 19
-0.158265 -0.211836 -0.496706 103 32 23
-0.158573 -0.211860 -0.497694 99 28 19
-0.159766 -0.212256 -0.498392 102 30 21
-0.160076 -0.212280 -0.499381 100 28 19
-0.160385 -0.212303 -0.500371 105 31 18
-0.157151 -0.210837 -0.502501 104 30 17
-0.157458 -0.210860 -0.503484 103 27 15
-0.158652 -0.211257 -0.504185 102 26 14
-0.158959 -0.211280 -0.505169 105 26 15
-0.160155 -0.211676 -0.505875 105 26 15
-0.160463 -0.211700 -0.506861 106 24 14
-0.160771 -0.211724 -0.507848 106 24 14
-0.161080 -0.211747 -0.508834 106 24 14
-0.162278 -0.212144 -0.509548 106 24 14
-0.162586 -0.212168 -0.510535 107 24 14
-0.162895 -0.212191 -0.511523 106 23 13
-0.163204 -0.212215 -0.512511 106 23 13
-0.163512 -0.212239 -0.513499 106 23 13
-0.163821 -0.212262 -0.514487 106 23 13
-0.163237 -0.211913 -0.515738 106 23 13
-0.163545 -0.211936 -0.516724 106 23 13
-0.163853 -0.211960 -0.517710 107 24 14
-0.163267 -0.211610 -0.518955 109 23 14
-0.163575 -0.211634 -0.519940 108 22 13
-0.163883 -0.211658 -0.520924 108 22 13
-0.163295 -0.211308 -0.522163 109 23 14
-0.163602 -0.211331 -0.523146 110 22 14
-0.163909 -0.211355 -0.524129 110 22 14
-0.164216 -0.211378 -0.525112 109 21 13
-0.163626 -0.211029 -0.526342 110 22 14
-0.163933 -0.211052 -0.527324 110 22 14
-0.164239 -0.211076 -0.528305 109 21 13
-0.164546 -0.211099 -0.529287 110 22 14
-0.164853 -0.211123 -0.530269 110 22 14
-0.165160 -0.211146 -0.531250 112 21 14
-0.165466 -0.211170 -0.532232 112 21 14
-0.165773 -0.211193 -0.533213 111 20 13
-0.166080 -0.211217 -0.534195 112 21 14
-0.166387 -0.211240 -0.535176 113 19 13
-0.166693 -0.211264 -0.536158 114 20 14
-0.167000 -0.211287 -0.537139 114 20 14
-0.167307 -0.211311 -0.538121 114 20 14
-0.167613 -0.211334 -0.539102 112 21 14
-0.167920 -0.211358 -0.540084 111 20 13
-0.167322 -0.211007 -0.541289 111 19 15
-0.167628 -0.211031 -0.542269 112 20 16
-0.167934 -0.211054 -0.543249 110 21 16
-0.168241 -0.211078 -0.544229 113 24 19
-0.168547 -0.211101 -0.545209 105 32 28
-0.168853 -0.211125 -0.546189 111 38 34
-0.169159 -0.211148 -0.547169 100 62 62
-0.169465 -0.211172 -0.548149 136 98 98
-0.169772 -0.211195 -0.549129 122 108 104
-0.170078 -0.211218 -0.550109 127 113 109
-0.170384 -0.211242 -0.551089 129 115 111
-0.170690 -0.211265 -0.552069 129 115 111
-0.171908 -0.211663 -0.552844 129 110 108
-0.172214 -0.211687 -0.553825 125 106 104
-0.172521 -0.211710 -0.554807 135 112 111
-0.173740 -0.212109 -0.555588 115 92 91
-0.174047 -0.212132 -0.556571 112 76 80
-0.174354 -0.212156 -0.557554 112 76 80
-0.175576 -0.212554 -0.558342 116 76 81
-0.176798 -0.212952 -0.559133 119 79 84
-0.177106 -0.212976 -0.560119 135 112 111
-0.173753 -0.211500 -0.561868 190 167 166
-0.174975 -0.211899 -0.562659 126 116 116
-0.155089 -0.210024 -0.491255 67 7 15
-0.156278 -0.210418 -0.491939 79 19 27
-0.156586 -0.210442 -0.492925 90 18 16
-0.156895 -0.210466 -0.493911 92 20 18
-0.158086 -0.210860 -0.494601 87 18 13
-0.158395 -0.210884 -0.495589 99 30 25
-0.158703 -0.210908 -0.496577 115 70 59
-0.159012 -0.210931 -0.497564 120 75 64
-0.160206 -0.211326 -0.498262 115 58 51
-0.160515 -0.211350 -0.499252 96 39 32
-0.160824 -0.211373 -0.500241 104 36 26
-0.157587 -0.209913 -0.502372 103 35 25
-0.158781 -0.210307 -0.503071 106 35 21
-0.159089 -0.210331 -0.504056 105 34 20
-0.159397 -0.210354 -0.505040 108 34 21
-0.160593 -0.210749 -0.505746 108 34 21
-0.160901 -0.210773 -0.506732 106 32 19
-0.161209 -0.210797 -0.507719 106 32 19
-0.162408 -0.211192 -0.508430 108 32 20
-0.163607 -0.211587 -0.509146 107 31 19
-0.163916 -0.211610 -0.510135 108 32 20
-0.164225 -0.211634 -0.511124 107 31 19
-0.164534 -0.211658 -0.512114 108 32 18
-0.163951 -0.211310 -0.513370 108 32 18
-0.164260 -0.211334 -0.514357 106 30 16
-0.164568 -0.211357 -0.515345 107 31 17
-0.164877 -0.211381 -0.516333 108 29 16
-0.164291 -0.211033 -0.517581 108 29 16
-0.164600 -0.211056 -0.518567 108 29 16
-0.164908 -0.211080 -0.519554 105 26 13
-0.165216 -0.211104 -0.520540 106 24 12
-0.164628 -0.210755 -0.521780 106 24 12
-0.164039 -0.210407 -0.523017 107 24 12
-0.164346 -0.210431 -0.524000 107 24 12
-0.164653 -0.210454 -0.524983 107 24 12
-0.164960 -0.210478 -0.525966 108 25 13
-0.165267 -0.210501 -0.526949 107 24 12
-0.165575 -0.210525 -0.527933 107 24 12
-0.165882 -0.210548 -0.528916 109 23 12
-0.166189 -0.210572 -0.529899 109 23 12
-0.166496 -0.210596 -0.530882 109 23 14
-0.165902 -0.210247 -0.532103 108 22 13
-0.166209 -0.210270 -0.533085 109 21 13
-0.166516 -0.210294 -0.534066 110 22 14
-0.166822 -0.210317 -0.535048 109 21 13
-0.167129 -0.210341 -0.536029 110 22 14
-0.167436 -0.210364 -0.537011 110 22 14
-0.167743 -0.210388 -0.537992 110 22 14
-0.168049 -0.210411 -0.538974 112 21 14
-0.168356 -0.210435 -0.539955 111 20 13
-0.168663 -0.210458 -0.540937 111 20 13
-0.168969 -0.210482 -0.541918 111 20 13
-0.169276 -0.210506 -0.542900 110 21 16
-0.169583 -0.210529 -0.543881 111 22 17
-0.169890 -0.210553 -0.544863 105 32 30
-0.169288 -0.210203 -0.546061 112 39 37
-0.169594 -0.210227 -0.547041 109 73 73
-0.169901 -0.210250 -0.548021 130 94 94
-0.170207 -0.210274 -0.549001 122 108 104
-0.170513 -0.210297 -0.549981 128 114 110
-0.170819 -0.210321 -0.550960 133 119 115
-0.172037 -0.210717 -0.551734 134 120 116
-0.172343 -0.210741 -0.552715 138 119 117
-0.173562 -0.211137 -0.553493 139 120 118
-0.173869 -0.211161 -0.554476 142 119 118
-0.174177 -0.211184 -0.555459 128 105 104
-0.175397 -0.211581 -0.556244 117 86 88
-0.175705 -0.211605 -0.557228 109 78 80
-0.177842 -0.212375 -0.557822 114 81 82
-0.178151 -0.212398 -0.558809 116 83 84
-0.178459 -0.212422 -0.559797 139 118 117
-0.179684 -0.212819 -0.560594 191 170 169
-0.180910 -0.213216 -0.561394 117 108 111
-0.155526 -0.209098 -0.491126 68 8 16
-0.156716 -0.209491 -0.491809 80 20 28
-0.157024 -0.209515 -0.492796 90 17 20
-0.157333 -0.209539 -0.493782 87 14 17
-0.158525 -0.209932 -0.494472 103 60 55
-0.158833 -0.209955 -0.495459 156 113 108
-0.159142 -0.209979 -0.496447 137 119 108
-0.159451 -0.210003 -0.497435 130 112 101
-0.155330 -0.208179 -0.499874 119 87 81
-0.155637 -0.208202 -0.500854 80 48 42
-0.155943 -0.208226 -0.501834 89 41 35
-0.158024 -0.208988 -0.502243 95 47 41
-0.158331 -0.209012 -0.503226 104 40 33
-0.159526 -0.209405 -0.503927 97 33 26
-0.159834 -0.209429 -0.504912 101 33 23
-0.161031 -0.209822 -0.505617 100 32 22
-0.161339 -0.209846 -0.506603 97 32 23
-0.161647 -0.209869 -0.507589 100 35 26
-0.162846 -0.210263 -0.508301 100 35 26
-0.164046 -0.210656 -0.509016 100 35 26
-0.164355 -0.210680 -0.510005 102 34 26
-0.164664 -0.210704 -0.510995 103 35 27
-0.164974 -0.210728 -0.511984 108 37 28
-0.164390 -0.210381 -0.513240 109 38 29
-0.164698 -0.210405 -0.514228 110 39 25
-0.165007 -0.210429 -0.515216 110 39 25
-0.165316 -0.210452 -0.516204 111 37 24
-0.165624 -0.210476 -0.517192 109 35 22
-0.165933 -0.210500 -0.518179 109 35 20
-0.166242 -0.210523 -0.519167 107 33 18
-0.165654 -0.210176 -0.520411 109 33 19
-0.165962 -0.210200 -0.521397 109 33 19
-0.164475 -0.209483 -0.522888 111 32 19
-0.164782 -0.209506 -0.523871 112 33 20
-0.165090 -0.209530 -0.524854 112 33 20
-0.165397 -0.209554 -0.525838 110 31 18
-0.165704 -0.209577 -0.526821 110 31 18
-0.166011 -0.209601 -0.527804 110 31 18
-0.165418 -0.209254 -0.529030 109 30 17
-0.165725 -0.209277 -0.530012 109 30 17
-0.166031 -0.209301 -0.530993 111 29 19
-0.166338 -0.209324 -0.531975 111 29 19
-0.167547 -0.209718 -0.532719 111 29 19
-0.167855 -0.209742 -0.533702 111 29 19
-0.168162 -0.209766 -0.534686 111 28 18
-0.167565 -0.209418 -0.535901 110 27 17
-0.167872 -0.209442 -0.536882 112 26 17
-0.168178 -0.209465 -0.537864 112 26 17
-0.168485 -0.209489 -0.538845 110 24 15
-0.168792 -0.209512 -0.539827 109 23 14
-0.169099 -0.209536 -0.540808 110 22 14
-0.169405 -0.209559 -0.541790 109 21 13
-0.169712 -0.209583 -0.542771 110 21 16
-0.170019 -0.209606 -0.543753 111 22 17
-0.170325 -0.209630 -0.544734 104 31 29
-0.170632 -0.209653 -0.545716 116 43 41
-0.170939 -0.209677 -0.546698 111 78 79
-0.171246 -0.209700 -0.547679 127 94 95
-0.171552 -0.209724 -0.548661 123 109 105
-0.171859 -0.209747 -0.549642 129 115 111
-0.172166 -0.209771 -0.550624 136 120 117
-0.173384 -0.210166 -0.551398 137 121 118
-0.173692 -0.210189 -0.552381 142 123 121
-0.174912 -0.210585 -0.553161 147 128 126
-0.175219 -0.210608 -0.554145 151 130 129
-0.176441 -0.211003 -0.554929 139 118 117
-0.176749 -0.211027 -0.555916 143 115 114
-0.177972 -0.211422 -0.556704 146 118 117
-0.179196 -0.211818 -0.557496 160 129 127
-0.179505 -0.211842 -0.558486 134 103 101
-0.180730 -0.212237 -0.559282 163 144 140
-0.181040 -0.212261 -0.560273 190 171 167
-0.181350 -0.212285 -0.561264 111 102 105
-0.155963 -0.208173 -0.490997 71 11 19
-0.157154 -0.208564 -0.491680 80 20 28
-0.158346 -0.208956 -0.492367 84 17 20
-0.158655 -0.208979 -0.493354 94 27 30
-0.158963 -0.209003 -0.494342 138 113 106
-0.159272 -0.209027 -0.495330 137 112 105
-0.160466 -0.209418 -0.496024 127 120 110
-0.160775 -0.209442 -0.497014 131 124 114
-0.155766 -0.207257 -0.499746 119 103 98
-0.156072 -0.207281 -0.500726 112 96 91
-0.156378 -0.207304 -0.501706 136 115 110
-0.158460 -0.208064 -0.502114 129 108 103
-0.163210 -0.209929 -0.501676 112 65 64
-0.159964 -0.208479 -0.503798 84 37 36
-0.161161 -0.208871 -0.504502 122 79 74
-0.161469 -0.208895 -0.505488 136 93 88
-0.162667 -0.209287 -0.506196 115 80 75
-0.162976 -0.209311 -0.507184 93 58 53
-0.164176 -0.209703 -0.507897 115 78 73
-0.165377 -0.210095 -0.508613 110 73 68
-0.165687 -0.210119 -0.509604 103 64 60
-0.165997 -0.210142 -0.510595 97 58 54
-0.165413 -0.209797 -0.511855 103 53 48
-0.165722 -0.209821 -0.512844 94 44 39
-0.166031 -0.209845 -0.513833 91 37 29
-0.166341 -0.209869 -0.514823 94 40 32
-0.166650 -0.209892 -0.515812 92 35 26
-0.166959 -0.209916 -0.516802 92 35 26
-0.166372 -0.209571 -0.518050 94 33 25
-0.166680 -0.209595 -0.519038 96 35 27
-0.166989 -0.209618 -0.520026 98 35 25
-0.166400 -0.209273 -0.521268 99 36 26
-0.165810 -0.208928 -0.522507 101 36 25
-0.166118 -0.208951 -0.523491 102 37 26
-0.165526 -0.208606 -0.524726 104 36 26
-0.165833 -0.208629 -0.525709 104 36 26
-0.166141 -0.208653 -0.526692 109 38 24
-0.166448 -0.208676 -0.527675 109 38 24
-0.166755 -0.208700 -0.528658 107 35 24
-0.167062 -0.208724 -0.529641 114 42 31
-0.167369 -0.208747 -0.530624 111 47 40
-0.166774 -0.208401 -0.531846 114 50 43
-0.167984 -0.208794 -0.532591 113 41 32
-0.168291 -0.208818 -0.533574 110 38 29
-0.168598 -0.208841 -0.534557 114 35 24
-0.168906 -0.208865 -0.535540 111 32 21
-0.169213 -0.208888 -0.536523 113 31 21
-0.169520 -0.208912 -0.537506 112 30 20
-0.168921 -0.208566 -0.538717 110 28 18
-0.169228 -0.208589 -0.539698 110 28 18
-0.169534 -0.208613 -0.540680 108 25 15
-0.169841 -0.208636 -0.541661 106 23 13
-0.170148 -0.208660 -0.542643 109 22 16
-0.170455 -0.208684 -0.543624 110 23 17
-0.170761 -0.208707 -0.544606 105 31 32
-0.171068 -0.208731 -0.545587 113 39 40
-0.171375 -0.208754 -0.546569 116 83 86
-0.171682 -0.208778 -0.547551 128 95 98
-0.171988 -0.208801 -0.548532 125 110 109
-0.172295 -0.208825 -0.549514 129 114 113
-0.173514 -0.209218 -0.550286 137 121 118
-0.173821 -0.209242 -0.551270 138 122 119
-0.175041 -0.209635 -0.552047 143 124 122
-0.175349 -0.209659 -0.553032 157 138 136
-0.176571 -0.210053 -0.553814 155 134 133
-0.177793 -0.210446 -0.554599 144 123 122
-0.178102 -0.210470 -0.555587 150 122 121
-0.179326 -0.210864 -0.556377 162 134 133
-0.180551 -0.211258 -0.557171 167 140 134
-0.180861 -0.211282 -0.558162 157 130 124
-0.181171 -0.211306 -0.559153 171 152 146
-0.183315 -0.212070 -0.559761 190 171 165
-0.156401 -0.207247 -0.490868 70 10 18
-0.157592 -0.207637 -0.491551 81 21 29
-0.158785 -0.208027 -0.492237 74 13 16
-0.159093 -0.208051 -0.493225 125 64 67
-0.159402 -0.208074 -0.494213 128 114 106
-0.159711 -0.208098 -0.495201 128 114 106
-0.160905 -0.208488 -0.495895 130 123 117
-0.161215 -0.208512 -0.496884 97 90 84
-0.156201 -0.206336 -0.499618 97 83 79
-0.156507 -0.206359 -0.500598 115 101 97
-0.157701 -0.206750 -0.501290 130 119 112
-0.158897 -0.207140 -0.501986 133 122 115
-0.159204 -0.207163 -0.502969 92 64 61
-0.160401 -0.207554 -0.503669 99 71 68
-0.161599 -0.207944 -0.504372 145 124 119
-0.161907 -0.207968 -0.505359 137 116 111
-0.163106 -0.208358 -0.506067 117 106 99
-0.163415 -0.208382 -0.507055 120 109 102
-0.164616 -0.208772 -0.507768 139 128 119
-0.165817 -0.209163 -0.508483 138 127 118
-0.166127 -0.209187 -0.509474 137 126 117
-0.166437 -0.209211 -0.510465 133 122 113
-0.166746 -0.209234 -0.511456 128 109 105
-0.167056 -0.209258 -0.512447 114 95 91
-0.167366 -0.209282 -0.513438 130 110 102
-0.166780 -0.208938 -0.514693 134 114 106
-0.167089 -0.208962 -0.515683 133 111 103
-0.167398 -0.208986 -0.516672 127 105 97
-0.167707 -0.209010 -0.517661 133 103 96
-0.168017 -0.209033 -0.518651 110 80 73
-0.168326 -0.209057 -0.519640 100 68 64
-0.167737 -0.208713 -0.520884 114 82 78
-0.168045 -0.208737 -0.521872 112 77 72
-0.168354 -0.208761 -0.522860 106 71 66
-0.168663 -0.208784 -0.523848 105 64 58
-0.167170 -0.208073 -0.525332 104 63 57
-0.167478 -0.208096 -0.526317 111 46 37
-0.167786 -0.208120 -0.527301 101 36 27
-0.168094 -0.208143 -0.528286 101 40 34
-0.168401 -0.208167 -0.529271 156 95 89
-0.168709 -0.208191 -0.530255 144 112 106
-0.168113 -0.207846 -0.531479 131 99 93
-0.168420 -0.207870 -0.532462 94 46 42
-0.168728 -0.207894 -0.533445 90 42 38
-0.169035 -0.207917 -0.534428 98 34 27
-0.170247 -0.208309 -0.535179 97 33 26
-0.170555 -0.208332 -0.536163 99 34 25
-0.170863 -0.208356 -0.537148 98 33 24
-0.170264 -0.208011 -0.538360 102 30 21
-0.170571 -0.208035 -0.539344 103 31 22
-0.170878 -0.208058 -0.540327 106 23 18
-0.171185 -0.208082 -0.541310 104 21 16
-0.171493 -0.208105 -0.542293 106 22 19
-0.171800 -0.208129 -0.543276 107 23 20
-0.172107 -0.208153 -0.544259 105 31 34
-0.172414 -0.208176 -0.545242 113 39 42
-0.172721 -0.208200 -0.546225 114 81 84
-0.172117 -0.207855 -0.547422 134 101 104
-0.173336 -0.208247 -0.548192 126 111 110
-0.173643 -0.208270 -0.549175 130 115 114
-0.173950 -0.208294 -0.550158 137 121 118
-0.175171 -0.208686 -0.550933 138 122 119
-0.175478 -0.208710 -0.551918 142 126 123
-0.175786 -0.208733 -0.552903 156 140 137
-0.177009 -0.209125 -0.553685 153 134 132
-0.179147 -0.209887 -0.554269 146 127 125
-0.179456 -0.209910 -0.555258 155 129 125
-0.180682 -0.210303 -0.556050 172 146 142
-0.181908 -0.210695 -0.556845 172 150 142
-0.182218 -0.210719 -0.557837 167 145 137
-0.182528 -0.210743 -0.558830 177 161 154
-0.195692 -0.215932 -0.557140 181 165 158
-0.156838 -0.206321 -0.490739 71 11 21
-0.158030 -0.206710 -0.491422 82 22 32
-0.159223 -0.207098 -0.492108 71 17 20
-0.159532 -0.207122 -0.493096 140 86 89
-0.159841 -0.207146 -0.494084 124 113 104
-0.161036 -0.207534 -0.494776 131 120 111
-0.161345 -0.207558 -0.495765 73 59 55
-0.162541 -0.207947 -0.496462 55 41 37
-0.156636 -0.205415 -0.499489 75 56 54
-0.157831 -0.205803 -0.500180 121 102 100
-0.158137 -0.205827 -0.501162 128 119 112
-0.159333 -0.206216 -0.501857 131 122 115
-0.159641 -0.206239 -0.502840 86 65 64
-0.160838 -0.206628 -0.503540 96 75 74
-0.162037 -0.207017 -0.504243 136 122 118
-0.163236 -0.207406 -0.504950 132 118 114
-0.163545 -0.207430 -0.505937 114 111 106
-0.166530 -0.208549 -0.506095 118 115 110
-0.166841 -0.208573 -0.507088 128 124 117
-0.167151 -0.208597 -0.508080 129 125 118
-0.167461 -0.208621 -0.509073 135 128 122
-0.167771 -0.208645 -0.510065 134 127 121
-0.167186 -0.208303 -0.511327 119 107 105
-0.167496 -0.208327 -0.512318 118 106 104
-0.167806 -0.208350 -0.513309 131 122 117
-0.168115 -0.208374 -0.514300 131 122 117
-0.167528 -0.208032 -0.515553 130 126 117
-0.167838 -0.208056 -0.516543 132 128 119
-0.169044 -0.208445 -0.517272 134 123 116
-0.169354 -0.208469 -0.518263 124 113 106
-0.168765 -0.208127 -0.519511 127 116 109
-0.169074 -0.208150 -0.520500 138 127 120
-0.169384 -0.208174 -0.521489 135 124 115
-0.168793 -0.207832 -0.522730 138 127 118
-0.169101 -0.207856 -0.523718 147 128 122
-0.167608 -0.207147 -0.525203 137 118 112
-0.167915 -0.207171 -0.526188 109 51 51
-0.168223 -0.207194 -0.527172 81 23 23
-0.168531 -0.207218 -0.528157 129 78 78
-0.168838 -0.207241 -0.529142 167 116 116
-0.169146 -0.207265 -0.530126 143 127 122
-0.168550 -0.206922 -0.531350 122 106 101
-0.168857 -0.206946 -0.532333 96 77 75
-0.169164 -0.206969 -0.533316 116 97 95
-0.169471 -0.206993 -0.534299 127 100 94
-0.169779 -0.207016 -0.535282 113 86 80
-0.170992 -0.207406 -0.536034 115 80 75
-0.171300 -0.207430 -0.537019 115 80 75
-0.171608 -0.207454 -0.538004 111 61 56
-0.171916 -0.207477 -0.538988 103 53 48
-0.171315 -0.207134 -0.540198 100 22 20
-0.171622 -0.207158 -0.541181 98 20 18
-0.171929 -0.207181 -0.542164 103 19 19
-0.172236 -0.207205 -0.543147 105 21 21
-0.172544 -0.207228 -0.544130 102 29 32
-0.172851 -0.207252 -0.545113 111 38 41
-0.173158 -0.207275 -0.546097 116 83 86
-0.173465 -0.207299 -0.547080 137 104 107
-0.174685 -0.207690 -0.547851 127 112 111
-0.174993 -0.207713 -0.548835 132 117 116
-0.175300 -0.207737 -0.549820 137 121 118
-0.175608 -0.207760 -0.550805 141 125 122
-0.175916 -0.207784 -0.551789 148 131 131
-0.177138 -0.208175 -0.552570 157 140 140
-0.178362 -0.208565 -0.553353 153 133 134
-0.179586 -0.208956 -0.554140 149 129 130
-0.180812 -0.209347 -0.554929 155 132 127
-0.182039 -0.209738 -0.555722 171 148 143
-0.182349 -0.209762 -0.556715 172 152 144
-0.183577 -0.210153 -0.557512 167 147 139
-0.195826 -0.214954 -0.555992 182 168 162
-0.197062 -0.215346 -0.556815 183 169 163
-0.158160 -0.205759 -0.490307 69 12 21
-0.158468 -0.205783 -0.491293 80 23 32
-0.159662 -0.206170 -0.491979 76 24 29
-0.160857 -0.206557 -0.492667 139 87 92
-0.161166 -0.206580 -0.493657 121 110 101
-0.162362 -0.206968 -0.494350 118 107 98
-0.162672 -0.206991 -0.495341 62 41 40
-0.163870 -0.207379 -0.496040 58 37 36
-0.157960 -0.204857 -0.499070 76 50 50
-0.158267 -0.204881 -0.500052 128 102 102
-0.158573 -0.204904 -0.501033 127 120 112
-0.160660 -0.205655 -0.501442 129 122 114
-0.160968 -0.205679 -0.502427 84 68 65
-0.162166 -0.206066 -0.503128 96 80 77
-0.162475 -0.206090 -0.504114 131 122 117
-0.163675 -0.206477 -0.504820 128 119 114
-0.164876 -0.206865 -0.505530 117 115 107
-0.166971 -0.207616 -0.505965 119 117 109
-0.167281 -0.207640 -0.506958 127 124 119
-0.167591 -0.207664 -0.507950 129 126 121
-0.167902 -0.207688 -0.508943 97 85 85
-0.168212 -0.207712 -0.509935 78 66 66
-0.168522 -0.207735 -0.510928 76 59 61
-0.168832 -0.207759 -0.511920 116 99 101
-0.169142 -0.207783 -0.512913 128 124 117
-0.168556 -0.207442 -0.514170 130 126 119
-0.168865 -0.207466 -0.515161 132 128 121
-0.169175 -0.207490 -0.516152 114 110 103
-0.169485 -0.207514 -0.517143 112 95 95
-0.169794 -0.207537 -0.518134 101 84 84
-0.170104 -0.207561 -0.519125 129 115 111
-0.169514 -0.207220 -0.520371 129 115 111
-0.169823 -0.207244 -0.521360 129 122 116
-0.168330 -0.206539 -0.522853 131 124 118
-0.168639 -0.206562 -0.523839 133 124 117
-0.168947 -0.206586 -0.524825 126 117 110
-0.169255 -0.206610 -0.525812 88 36 41
-0.169563 -0.206633 -0.526798 76 24 29
-0.169871 -0.206657 -0.527784 119 76 78
-0.170180 -0.206680 -0.528770 158 115 117
-0.170488 -0.206704 -0.529757 130 123 117
-0.169891 -0.206363 -0.530982 122 115 109
-0.170199 -0.206386 -0.531967 119 114 110
-0.170507 -0.206410 -0.532951 139 134 130
-0.170814 -0.206434 -0.533936 137 133 124
-0.171122 -0.206457 -0.534921 132 128 119
-0.171430 -0.206481 -0.535906 134 127 119
-0.172645 -0.206869 -0.536660 135 128 120
-0.172953 -0.206893 -0.537647 150 123 117
-0.172353 -0.206552 -0.538860 114 87 81
-0.172661 -0.206575 -0.539844 90 16 17
-0.172968 -0.206599 -0.540829 95 21 22
-0.173276 -0.206622 -0.541814 103 19 21
-0.173584 -0.206646 -0.542798 104 20 22
-0.173891 -0.206669 -0.543783 102 29 32
-0.173287 -0.206328 -0.544985 113 40 43
-0.173595 -0.206351 -0.545968 117 84 87
-0.174814 -0.206740 -0.546737 139 106 109
-0.175122 -0.206764 -0.547722 129 112 112
-0.175430 -0.206787 -0.548706 135 118 118
-0.176652 -0.207177 -0.549482 137 121 118
-0.176960 -0.207200 -0.550468 141 125 122
-0.177268 -0.207224 -0.551454 151 136 135
-0.178492 -0.207613 -0.552236 156 141 140
-0.179717 -0.208003 -0.553021 152 132 133
-0.180942 -0.208392 -0.553809 151 131 132
-0.181252 -0.208416 -0.554800 159 136 131
-0.183397 -0.209171 -0.555394 171 148 143
-0.183708 -0.209195 -0.556388 173 153 145
-0.195959 -0.213976 -0.554845 169 149 141
-0.197195 -0.214366 -0.555666 177 166 159
-0.158598 -0.204832 -0.490178 69 14 22
-0.159792 -0.205217 -0.490861 79 24 32
-0.160101 -0.205241 -0.491849 87 37 41
-0.161296 -0.205626 -0.492538 139 89 93
-0.161605 -0.205650 -0.493527 122 108 100
-0.162802 -0.206036 -0.494221 114 100 92
-0.163112 -0.206060 -0.495212 66 38 39
-0.164310 -0.206445 -0.495910 64 36 37
-0.158396 -0.203934 -0.498942 77 46 48
-0.158702 -0.203958 -0.499923 131 100 102
-0.159899 -0.204344 -0.500616 127 120 112
-0.161097 -0.204729 -0.501313 129 122 114
-0.161405 -0.204753 -0.502298 79 69 67
-0.162604 -0.205139 -0.502999 88 78 76
-0.163805 -0.205525 -0.503703 127 123 116
-0.165006 -0.205911 -0.504411 126 122 115
-0.165315 -0.205935 -0.505400 118 116 108
-0.167412 -0.206683 -0.505835 119 117 109
-0.167722 -0.206707 -0.506828 127 124 121
-0.168032 -0.206731 -0.507820 122 119 116
-0.168342 -0.206755 -0.508813 77 60 62
-0.168653 -0.206778 -0.509805 55 38 40
-0.168963 -0.206802 -0.510798 69 44 52
-0.169273 -0.206826 -0.511790 122 97 105
-0.169583 -0.206850 -0.512783 130 126 119
-0.168996 -0.206511 -0.514040 128 124 117
-0.169305 -0.206534 -0.515031 96 86 84
-0.169615 -0.206558 -0.516022 50 40 38
-0.169925 -0.206582 -0.517013 63 31 36
-0.170234 -0.206606 -0.518004 74 42 47
-0.170544 -0.206629 -0.518995 77 46 48
-0.170854 -0.206653 -0.519986 91 60 62
-0.171163 -0.206677 -0.520977 117 109 106
-0.169670 -0.205975 -0.522472 132 124 121
-0.169979 -0.205998 -0.523460 136 128 125
-0.170287 -0.206022 -0.524447 113 105 102
-0.170596 -0.206046 -0.525435 72 24 32
-0.170905 -0.206069 -0.526423 74 26 34
-0.170309 -0.205730 -0.527655 120 84 84
-0.170618 -0.205753 -0.528641 151 115 115
-0.170926 -0.205777 -0.529628 129 125 118
-0.171234 -0.205800 -0.530614 121 117 110
-0.171542 -0.205824 -0.531600 113 108 106
-0.171850 -0.205848 -0.532586 115 110 108
-0.172159 -0.205871 -0.533573 119 116 111
-0.172467 -0.205895 -0.534559 131 128 123
-0.172775 -0.205919 -0.535545 129 127 119
-0.173083 -0.205942 -0.536531 136 134 126
-0.173391 -0.205966 -0.537518 136 108 107
-0.173700 -0.205989 -0.538504 86 58 57
-0.174008 -0.206013 -0.539490 89 19 21
-0.174316 -0.206037 -0.540476 92 22 24
-0.174624 -0.206060 -0.541463 101 20 21
-0.174932 -0.206084 -0.542449 102 21 22
-0.175240 -0.206108 -0.543435 102 29 32
-0.174636 -0.205767 -0.544639 113 40 43
-0.174944 -0.205791 -0.545623 118 85 88
-0.176165 -0.206179 -0.546394 141 108 111
-0.176473 -0.206202 -0.547380 131 114 114
-0.176781 -0.206226 -0.548366 136 119 119
-0.178004 -0.206613 -0.549143 138 121 121
-0.178313 -0.206637 -0.550131 141 124 124
-0.178622 -0.206661 -0.551119 161 149 149
-0.179847 -0.207049 -0.551902 156 144 144
-0.181073 -0.207437 -0.552688 152 132 133
-0.182300 -0.207825 -0.553477 153 133 134
-0.182610 -0.207848 -0.554470 162 140 132
-0.184757 -0.208601 -0.555065 174 152 144
-0.185068 -0.208625 -0.556061 173 155 146
-0.197329 -0.213386 -0.554517 169 151 142
-0.198566 -0.213775 -0.555339 178 167 160
-0.159922 -0.204265 -0.489744 69 14 24
-0.161117 -0.204649 -0.490430 79 24 34
-0.161426 -0.204673 -0.491419 90 42 46
-0.161735 -0.204696 -0.492408 134 86 90
-0.162933 -0.205081 -0.493100 123 107 100
-0.163242 -0.205104 -0.494091 112 96 89
-0.164441 -0.205489 -0.494787 70 37 38
-0.165641 -0.205873 -0.495487 68 35 36
-0.165951 -0.205897 -0.496481 76 43 46
-0.159138 -0.203035 -0.499795 133 100 103
-0.161227 -0.203780 -0.500199 125 121 114
-0.161535 -0.203804 -0.501184 122 118 111
-0.162734 -0.204188 -0.501883 99 96 91
-0.163935 -0.204573 -0.502586 128 125 120
-0.165136 -0.204957 -0.503292 125 125 119
-0.165446 -0.204981 -0.504281 123 123 117
-0.166649 -0.205365 -0.504992 116 116 110
-0.166958 -0.205389 -0.505983 117 117 111
-0.167268 -0.205413 -0.506974 125 125 121
-0.168473 -0.205798 -0.507690 116 116 112
-0.168783 -0.205822 -0.508683 73 61 61
-0.169093 -0.205845 -0.509675 59 47 47
-0.169404 -0.205869 -0.510668 73 51 55
-0.169714 -0.205893 -0.511660 117 95 99
-0.170024 -0.205917 -0.512653 132 127 123
-0.170334 -0.205940 -0.513646 129 124 120
-0.170644 -0.205964 -0.514638 100 88 88
-0.170954 -0.205988 -0.515631 48 36 36
-0.171264 -0.206012 -0.516623 71 33 37
-0.171575 -0.206036 -0.517616 78 40 44
-0.171885 -0.206059 -0.518608 75 37 41
-0.171294 -0.205722 -0.519856 101 63 67
-0.170702 -0.205384 -0.521101 127 123 116
-0.170109 -0.205046 -0.522342 130 126 119
-0.170417 -0.205070 -0.523330 140 130 128
-0.170726 -0.205093 -0.524318 83 73 71
-0.171035 -0.205117 -0.525306 78 28 34
-0.171343 -0.205141 -0.526294 75 25 31
-0.171652 -0.205164 -0.527282 117 86 84
-0.171961 -0.205188 -0.528269 147 116 114
-0.172269 -0.205212 -0.529257 135 128 122
-0.171672 -0.204873 -0.530485 109 102 96
-0.171980 -0.204897 -0.531471 64 53 57
-0.172288 -0.204921 -0.532457 66 55 59
-0.172596 -0.204944 -0.533443 120 117 112
-0.172905 -0.204968 -0.534430 132 129 124
-0.173213 -0.204991 -0.535416 134 129 125
-0.174430 -0.205377 -0.536172 95 90 86
-0.173829 -0.205039 -0.537388 77 39 41
-0.174137 -0.205062 -0.538375 68 30 32
-0.174446 -0.205086 -0.539361 93 23 25
-0.174754 -0.205110 -0.540347 92 22 24
-0.175062 -0.205133 -0.541333 101 20 21
-0.175370 -0.205157 -0.542320 102 21 22
-0.175678 -0.205180 -0.543306 101 28 31
-0.175987 -0.205204 -0.544292 111 38 41
-0.176295 -0.205228 -0.545278 120 87 90
-0.176603 -0.205251 -0.546265 142 109 112
-0.176911 -0.205275 -0.547251 135 115 116
-0.178134 -0.205661 -0.548026 139 119 120
-0.178443 -0.205685 -0.549014 138 121 123
-0.178752 -0.205708 -0.550001 155 138 140
-0.179977 -0.206095 -0.550783 173 160 164
-0.180286 -0.206119 -0.551772 155 142 146
-0.181513 -0.206505 -0.552558 152 132 133
-0.182741 -0.206892 -0.553347 154 134 135
-0.183969 -0.207278 -0.554139 164 142 134
-0.185199 -0.207665 -0.554935 175 153 145
-0.185510 -0.207689 -0.555931 173 155 146
-0.197780 -0.212431 -0.554384 172 154 145
-0.199018 -0.212818 -0.555206 180 169 162
-0.161247 -0.203695 -0.489311 68 16 25
-0.162444 -0.204078 -0.489997 79 27 36
-0.162753 -0.204101 -0.490988 87 39 43
-0.163063 -0.204125 -0.491979 135 87 91
-0.164261 -0.204508 -0.492672 123 107 100
-0.164571 -0.204532 -0.493665 110 94 87
-0.165771 -0.204915 -0.494362 69 36 35
-0.166972 -0.205298 -0.495063 67 34 33
-0.167283 -0.205321 -0.496059 77 41 43
-0.160465 -0.202472 -0.499376 134 98 100
-0.162556 -0.203214 -0.499782 126 122 115
-0.162864 -0.203237 -0.500768 126 122 115
-0.164065 -0.203620 -0.501469 124 125 116
-0.165267 -0.204003 -0.502173 125 126 117
-0.166469 -0.204386 -0.502880 125 125 119
-0.166779 -0.204410 -0.503871 124 124 118
-0.167983 -0.204793 -0.504583 116 116 110
-0.168293 -0.204817 -0.505575 117 117 111
-0.168604 -0.204841 -0.506568 125 126 122
-0.169810 -0.205224 -0.507286 117 118 114
-0.170120 -0.205248 -0.508280 120 117 112
-0.170431 -0.205272 -0.509274 115 112 107
-0.170742 -0.205296 -0.510268 106 89 89
-0.171052 -0.205319 -0.511262 112 95 95
-0.171363 -0.205343 -0.512256 132 127 123
-0.171674 -0.205367 -0.513251 126 121 117
-0.171984 -0.205391 -0.514245 94 86 83
-0.171395 -0.205055 -0.515501 93 85 82
-0.171705 -0.205079 -0.516493 103 72 72
-0.172015 -0.205102 -0.517486 73 42 42
-0.172326 -0.205126 -0.518478 71 31 34
-0.172636 -0.205150 -0.519471 118 78 81
-0.172043 -0.204814 -0.520717 134 130 123
-0.171450 -0.204477 -0.521961 130 126 119
-0.171759 -0.204501 -0.522950 131 120 115
-0.171165 -0.204165 -0.524189 67 56 51
-0.171473 -0.204188 -0.525177 83 36 35
-0.171782 -0.204212 -0.526164 93 46 45
-0.172091 -0.204236 -0.527152 125 95 90
-0.172399 -0.204259 -0.528140 146 116 111
-0.172708 -0.204283 -0.529128 139 130 123
-0.173017 -0.204307 -0.530116 111 102 95
-0.172418 -0.203970 -0.531342 58 43 44
-0.172726 -0.203993 -0.532328 70 55 56
-0.173034 -0.204017 -0.533314 124 116 113
-0.174252 -0.204401 -0.534067 136 128 125
-0.173651 -0.204064 -0.535287 125 117 114
-0.174869 -0.204449 -0.536043 88 80 77
-0.175178 -0.204472 -0.537030 66 23 25
-0.175486 -0.204496 -0.538018 75 32 34
-0.175795 -0.204520 -0.539006 94 21 24
-0.176104 -0.204543 -0.539994 94 21 24
-0.175500 -0.204206 -0.541204 102 21 22
-0.175808 -0.204230 -0.542191 102 21 22
-0.176116 -0.204253 -0.543177 99 26 29
-0.176425 -0.204277 -0.544163 111 38 41
-0.176733 -0.204301 -0.545149 122 91 91
-0.177956 -0.204685 -0.545921 141 110 110
-0.178264 -0.204709 -0.546909 136 116 117
-0.179489 -0.205094 -0.547685 139 119 120
-0.179798 -0.205117 -0.548674 140 123 125
-0.180107 -0.205141 -0.549664 155 138 140
-0.181334 -0.205526 -0.550446 161 146 147
-0.181643 -0.205550 -0.551437 150 135 136
-0.182871 -0.205935 -0.552225 152 132 133
-0.184100 -0.206320 -0.553015 154 134 135
-0.184411 -0.206344 -0.554009 162 142 134
-0.185641 -0.206729 -0.554804 173 153 145
-0.186872 -0.207114 -0.555603 172 157 147
-0.187184 -0.207138 -0.556600 171 156 146
-0.162574 -0.203122 -0.488877 68 16 25
-0.163772 -0.203504 -0.489565 79 27 36
-0.164082 -0.203527 -0.490557 86 38 42
-0.164392 -0.203551 -0.491550 136 88 92
-0.165591 -0.203932 -0.492244 125 107 98
-0.165902 -0.203956 -0.493238 111 93 84
-0.166213 -0.203980 -0.494232 74 41 40
-0.167414 -0.204362 -0.494933 64 31 30
-0.167725 -0.204385 -0.495929 79 41 43
-0.161794 -0.201905 -0.498957 137 99 101
-0.163886 -0.202644 -0.499364 128 124 117
-0.164195 -0.202668 -0.500352 127 123 116
-0.165397 -0.203049 -0.501054 118 118 112
-0.165706 -0.203073 -0.502043 105 105 99
-0.166909 -0.203455 -0.502750 124 124 118
-0.168114 -0.203836 -0.503460 124 124 118
-0.168424 -0.203860 -0.504453 116 116 110
-0.168734 -0.203884 -0.505445 117 117 111
-0.169044 -0.203908 -0.506438 123 127 122
-0.170251 -0.204290 -0.507156 121 125 120
-0.170562 -0.204313 -0.508150 131 128 123
-0.170873 -0.204337 -0.509144 132 129 124
-0.171183 -0.204361 -0.510138 92 77 76
-0.171494 -0.204385 -0.511132 111 96 95
-0.171805 -0.204409 -0.512126 131 128 123
-0.172115 -0.204433 -0.513120 128 125 120
-0.172426 -0.204456 -0.514115 132 129 124
-0.171836 -0.204122 -0.515371 131 128 123
-0.172146 -0.204146 -0.516363 135 107 106
-0.172456 -0.204169 -0.517356 67 39 38
-0.172766 -0.204193 -0.518348 65 27 29
-0.173077 -0.204217 -0.519341 141 103 105
-0.172484 -0.203882 -0.520588 132 128 121
-0.172793 -0.203906 -0.521579 130 126 119
-0.172199 -0.203571 -0.522821 124 108 103
-0.172508 -0.203595 -0.523810 77 61 56
-0.172817 -0.203618 -0.524799 111 64 51
-0.173126 -0.203642 -0.525789 114 67 54
-0.173435 -0.203666 -0.526778 117 86 77
-0.173745 -0.203689 -0.527768 135 104 95
-0.174054 -0.203713 -0.528757 137 128 119
-0.174363 -0.203737 -0.529746 112 103 94
-0.174672 -0.203760 -0.530736 57 40 42
-0.174981 -0.203784 -0.531725 72 55 57
-0.174381 -0.203449 -0.532950 126 116 114
-0.174690 -0.203473 -0.533938 137 127 125
-0.174999 -0.203496 -0.534925 128 120 117
-0.176218 -0.203879 -0.535683 92 84 81
-0.176527 -0.203903 -0.536672 74 24 28
-0.176836 -0.203926 -0.537661 80 30 34
-0.177146 -0.203950 -0.538651 95 21 22
-0.177455 -0.203974 -0.539640 95 21 22
-0.176851 -0.203638 -0.540852 101 20 21
-0.177160 -0.203662 -0.541840 102 21 22
-0.177468 -0.203686 -0.542828 98 25 30
-0.177777 -0.203709 -0.543816 110 37 42
-0.178086 -0.203733 -0.544804 125 94 94
-0.179310 -0.204116 -0.545577 141 110 110
-0.179619 -0.204140 -0.546566 134 117 117
-0.180845 -0.204523 -0.547344 137 120 120
-0.181154 -0.204547 -0.548335 140 123 125
-0.181464 -0.204571 -0.549326 154 137 139
-0.182692 -0.204954 -0.550110 155 140 141
-0.183002 -0.204978 -0.551102 149 134 135
-0.184231 -0.205361 -0.551891 152 132 133
-0.184541 -0.205385 -0.552885 160 140 141
-0.185772 -0.205769 -0.553678 168 148 140
-0.186083 -0.205793 -0.554674 174 154 146
-0.187315 -0.206177 -0.555472 172 157 147
