ply
format ascii 1.0
element vertex 1206
property float x
property float y
property float z
property uchar red
property uchar green
property uchar blue
end_header
-0.149927 -0.224329 -0.569954 97 25 16
-0.149313 -0.224360 -0.569301 97 25 16
-0.148699 -0.224392 -0.568648 96 24 15
-0.148086 -0.224423 -0.567995 94 23 14
-0.146596 -0.224797 -0.567826 94 23 14
-0.145981 -0.224829 -0.567172 92 29 19
-0.144488 -0.225203 -0.567000 94 31 21
-0.144751 -0.224892 -0.565864 94 34 23
-0.143256 -0.225266 -0.565689 94 34 23
-0.141758 -0.225641 -0.565512 95 35 24
-0.141141 -0.225672 -0.564855 96 36 25
-0.139640 -0.226047 -0.564675 95 35 24
-0.138136 -0.226421 -0.564491 95 35 24
-0.136630 -0.226796 -0.564306 96 36 25
-0.136010 -0.226828 -0.563646 96 36 25
-0.134501 -0.227203 -0.563457 95 37 25
-0.132099 -0.227921 -0.563735 95 37 25
-0.131476 -0.227953 -0.563071 93 37 25
-0.129960 -0.228328 -0.562875 94 38 26
-0.128442 -0.228704 -0.562676 89 43 23
-0.126921 -0.229079 -0.562475 102 56 36
-0.125398 -0.229455 -0.562272 117 84 44
-0.122977 -0.230174 -0.562529 116 83 43
-0.121449 -0.230550 -0.562319 115 85 39
-0.119918 -0.230926 -0.562107 115 85 39
-0.117485 -0.231646 -0.562352 112 83 40
-0.115949 -0.232022 -0.562134 113 84 41
-0.113509 -0.232742 -0.562371 117 86 43
-0.111063 -0.233463 -0.562603 104 73 30
-0.108614 -0.234183 -0.562829 97 54 29
-0.106159 -0.234904 -0.563052 93 50 25
-0.103701 -0.235625 -0.563269 94 48 32
-0.101238 -0.236346 -0.563481 95 49 33
-0.095134 -0.238444 -0.565487 97 51 35
-0.092657 -0.239166 -0.565686 97 51 35
-0.089265 -0.240233 -0.566326 98 53 40
-0.086778 -0.240955 -0.566513 101 56 43
-0.083373 -0.242022 -0.567141 103 63 48
-0.080876 -0.242745 -0.567317 104 64 49
-0.077459 -0.243813 -0.567931 102 69 52
-0.145096 -0.238005 -0.633578 88 48 49
-0.145238 -0.237702 -0.632311 108 35 36
-0.145383 -0.237399 -0.631047 106 33 34
-0.145530 -0.237095 -0.629785 111 36 28
-0.145679 -0.236792 -0.628526 115 40 32
-0.145831 -0.236488 -0.627269 119 50 31
-0.146801 -0.235846 -0.625465 131 62 43
-0.146958 -0.235542 -0.624214 134 75 39
-0.147117 -0.235238 -0.622966 136 77 41
-0.147279 -0.234934 -0.621719 132 74 33
-0.147443 -0.234629 -0.620476 129 71 30
-0.147609 -0.234325 -0.619234 130 70 30
-0.147777 -0.234020 -0.617996 134 74 34
-0.147948 -0.233715 -0.616759 136 78 35
-0.148121 -0.233410 -0.615525 137 79 36
-0.148296 -0.233105 -0.614293 136 79 31
-0.148474 -0.232800 -0.613064 134 77 29
-0.148653 -0.232495 -0.611837 132 74 29
-0.148835 -0.232190 -0.610613 130 72 27
-0.149019 -0.231884 -0.609390 133 75 32
-0.149206 -0.231579 -0.608171 130 72 29
-0.149395 -0.231273 -0.606954 128 70 29
-0.149586 -0.230967 -0.605739 126 68 27
-0.149779 -0.230661 -0.604526 125 65 32
-0.149974 -0.230355 -0.603316 120 60 27
-0.150172 -0.230049 -0.602108 119 57 27
-0.150372 -0.229743 -0.600903 118 56 26
-0.150574 -0.229437 -0.599700 120 55 28
-0.150779 -0.229130 -0.598500 118 53 26
-0.150986 -0.228824 -0.597302 119 50 27
-0.151195 -0.228517 -0.596106 118 49 26
-0.151406 -0.228210 -0.594913 119 49 26
-0.151620 -0.227903 -0.593722 118 48 25
-0.151835 -0.227596 -0.592533 122 49 27
-0.152054 -0.227289 -0.591347 122 49 27
-0.152274 -0.226982 -0.590164 118 49 28
-0.151647 -0.227014 -0.589496 115 46 25
-0.151870 -0.226706 -0.588316 100 37 23
-0.152096 -0.226399 -0.587138 97 34 20
-0.152324 -0.226091 -0.585963 91 33 19
-0.152555 -0.225783 -0.584790 91 33 19
-0.151932 -0.225815 -0.584128 91 33 21
-0.152166 -0.225507 -0.582958 93 35 23
-0.151544 -0.225539 -0.582297 96 36 23
-0.151782 -0.225231 -0.581131 96 36 23
-0.152021 -0.224923 -0.579968 97 32 19
-0.151402 -0.224955 -0.579309 94 29 16
-0.151645 -0.224646 -0.578149 96 25 16
-0.151890 -0.224338 -0.576992 96 25 16
-0.151273 -0.224369 -0.576335 97 25 16
-0.150656 -0.224401 -0.575679 97 25 16
-0.150905 -0.224092 -0.574526 97 25 16
-0.150289 -0.224124 -0.573871 97 25 16
-0.149673 -0.224155 -0.573215 97 25 16
-0.149928 -0.223846 -0.572067 96 24 15
-0.149313 -0.223878 -0.571413 97 25 16
-0.148698 -0.223910 -0.570759 97 25 16
-0.148957 -0.223600 -0.569616 96 25 16
-0.147468 -0.223973 -0.569450 95 24 15
-0.146853 -0.224004 -0.568796 94 23 14
-0.146239 -0.224036 -0.568142 95 24 15
-0.144746 -0.224408 -0.567971 92 29 17
-0.144130 -0.224440 -0.567316 94 31 19
-0.143514 -0.224472 -0.566660 94 34 21
-0.142898 -0.224503 -0.566005 94 34 21
-0.141399 -0.224876 -0.565828 95 35 22
-0.139899 -0.225249 -0.565650 95 35 22
-0.138396 -0.225622 -0.565468 95 35 22
-0.136890 -0.225996 -0.565285 95 35 22
-0.135383 -0.226369 -0.565098 96 36 23
-0.134761 -0.226401 -0.564437 96 36 23
-0.133250 -0.226775 -0.564247 95 37 23
-0.130847 -0.227490 -0.564526 95 37 23
-0.130222 -0.227522 -0.563861 94 38 24
-0.128704 -0.227896 -0.563664 94 38 24
-0.127184 -0.228270 -0.563464 95 52 27
-0.125662 -0.228644 -0.563263 117 74 49
-0.124137 -0.229019 -0.563059 114 83 40
-0.121713 -0.229735 -0.563316 116 85 42
-0.120183 -0.230110 -0.563105 113 84 41
-0.118651 -0.230484 -0.562893 109 80 37
-0.116216 -0.231201 -0.563138 107 81 39
-0.114678 -0.231576 -0.562919 113 87 45
-0.112235 -0.232294 -0.563156 115 86 43
-0.109787 -0.233011 -0.563387 99 70 27
-0.107335 -0.233729 -0.563614 97 54 29
-0.104878 -0.234447 -0.563836 93 50 25
-0.102417 -0.235166 -0.564054 95 49 33
-0.099952 -0.235884 -0.564266 96 50 34
-0.093843 -0.237974 -0.566274 97 50 37
-0.091364 -0.238693 -0.566472 99 52 39
-0.087968 -0.239755 -0.567113 97 55 41
-0.085479 -0.240475 -0.567301 103 61 47
-0.082071 -0.241538 -0.567929 101 64 48
-0.079571 -0.242258 -0.568105 104 67 51
-0.143898 -0.237514 -0.634478 89 46 48
-0.144040 -0.237212 -0.633210 108 35 36
-0.144996 -0.236574 -0.631389 106 33 34
-0.145144 -0.236272 -0.630126 112 35 28
-0.145294 -0.235970 -0.628866 115 38 31
-0.145446 -0.235668 -0.627609 116 45 29
-0.145600 -0.235365 -0.626354 125 54 38
-0.145757 -0.235062 -0.625101 130 70 37
-0.145916 -0.234760 -0.623851 135 75 42
-0.146077 -0.234457 -0.622603 130 71 33
-0.146241 -0.234154 -0.621358 128 69 31
-0.147229 -0.233514 -0.619570 128 67 30
-0.147398 -0.233211 -0.618331 133 72 35
-0.147569 -0.232908 -0.617094 137 74 35
-0.147743 -0.232604 -0.615859 135 72 33
-0.147919 -0.232301 -0.614627 133 70 31
-0.148097 -0.231997 -0.613397 133 70 31
-0.148277 -0.231693 -0.612169 132 69 30
-0.148460 -0.231389 -0.610944 132 69 30
-0.148645 -0.231085 -0.609722 133 73 33
-0.148832 -0.230781 -0.608501 131 71 31
-0.149021 -0.230477 -0.607283 129 68 31
-0.149213 -0.230172 -0.606068 127 66 29
-0.149407 -0.229868 -0.604855 126 65 30
-0.149603 -0.229563 -0.603644 123 62 27
-0.149801 -0.229258 -0.602436 121 59 27
-0.150002 -0.228954 -0.601230 119 57 25
-0.150205 -0.228649 -0.600027 116 54 26
-0.150410 -0.228344 -0.598826 114 52 24
-0.150617 -0.228038 -0.597627 115 49 25
-0.150827 -0.227733 -0.596431 115 49 25
-0.151039 -0.227428 -0.595237 116 47 26
-0.151253 -0.227122 -0.594045 116 47 26
-0.151470 -0.226816 -0.592856 118 48 27
-0.151688 -0.226511 -0.591670 117 47 26
-0.151909 -0.226205 -0.590485 113 46 29
-0.151282 -0.226237 -0.589818 104 37 20
-0.151507 -0.225931 -0.588637 95 35 24
-0.151733 -0.225625 -0.587459 92 32 21
-0.151962 -0.225318 -0.586283 91 32 23
-0.152193 -0.225012 -0.585110 91 32 23
-0.151570 -0.225044 -0.584447 91 35 21
-0.151805 -0.224737 -0.583277 94 38 24
-0.151183 -0.224769 -0.582616 99 43 27
-0.151421 -0.224462 -0.581449 99 43 27
-0.151661 -0.224156 -0.580286 100 38 21
-0.151042 -0.224187 -0.579627 96 34 17
-0.151286 -0.223880 -0.578466 97 26 17
-0.151531 -0.223573 -0.577308 96 25 16
-0.150914 -0.223605 -0.576652 97 25 16
-0.150297 -0.223637 -0.575995 98 26 17
-0.150548 -0.223329 -0.574842 97 25 16
-0.149932 -0.223361 -0.574187 97 25 16
-0.149316 -0.223392 -0.573531 97 25 16
-0.149570 -0.223085 -0.572383 96 24 15
-0.148956 -0.223116 -0.571729 98 26 17
-0.148341 -0.223148 -0.571074 97 25 16
-0.147726 -0.223180 -0.570420 97 25 16
-0.146236 -0.223551 -0.570254 96 24 15
-0.145620 -0.223582 -0.569598 94 23 14
-0.145004 -0.223614 -0.568943 95 24 15
-0.143509 -0.223985 -0.568772 93 30 18
-0.142892 -0.224017 -0.568115 94 31 19
-0.142275 -0.224049 -0.567458 94 34 21
-0.141658 -0.224080 -0.566802 94 34 21
-0.140158 -0.224452 -0.566625 94 34 21
-0.138655 -0.224824 -0.566445 95 35 22
-0.138036 -0.224855 -0.565786 95 35 22
-0.135643 -0.225567 -0.566079 95 35 22
-0.134134 -0.225939 -0.565892 95 37 23
-0.133511 -0.225971 -0.565229 95 37 23
-0.131998 -0.226344 -0.565039 93 37 23
-0.130484 -0.226716 -0.564846 94 38 24
-0.128966 -0.227088 -0.564651 92 39 22
-0.127447 -0.227461 -0.564454 98 45 28
-0.125925 -0.227834 -0.564254 111 74 40
-0.124401 -0.228206 -0.564052 114 77 43
-0.122875 -0.228579 -0.563847 115 84 43
-0.121346 -0.228952 -0.563640 116 85 44
-0.119816 -0.229326 -0.563430 109 80 41
-0.117383 -0.230040 -0.563680 108 79 40
-0.114945 -0.230754 -0.563925 111 85 43
-0.113405 -0.231128 -0.563705 117 91 49
-0.110960 -0.231842 -0.563942 117 86 45
-0.108510 -0.232557 -0.564174 100 69 28
-0.106055 -0.233272 -0.564400 97 54 31
-0.103596 -0.233988 -0.564622 93 50 27
-0.101132 -0.234703 -0.564840 96 50 34
-0.098664 -0.235419 -0.565052 96 50 34
-0.092550 -0.237500 -0.567063 97 53 37
-0.090069 -0.238217 -0.567261 98 54 38
-0.087583 -0.238934 -0.567454 99 59 44
-0.084178 -0.239992 -0.568089 102 62 47
-0.080767 -0.241051 -0.568718 101 66 49
-0.078265 -0.241769 -0.568894 106 71 54
-0.143509 -0.236686 -0.634821 88 45 47
-0.143652 -0.236385 -0.633552 108 35 36
-0.143797 -0.236085 -0.632286 106 33 34
-0.144758 -0.235449 -0.630467 112 35 28
-0.144908 -0.235148 -0.629207 114 37 30
-0.145061 -0.234847 -0.627949 115 41 28
-0.145216 -0.234546 -0.626693 122 48 35
-0.145374 -0.234245 -0.625440 126 66 35
-0.145533 -0.233944 -0.624189 134 74 43
-0.145695 -0.233642 -0.622940 130 71 35
-0.145859 -0.233341 -0.621694 128 69 33
-0.146026 -0.233039 -0.620451 130 66 30
-0.147018 -0.232402 -0.618666 132 68 32
-0.147190 -0.232100 -0.617428 133 69 33
-0.147365 -0.231798 -0.616193 131 67 31
-0.147541 -0.231496 -0.614960 132 65 30
-0.147720 -0.231193 -0.613730 132 65 30
-0.147901 -0.230891 -0.612501 132 65 30
-0.148084 -0.230588 -0.611276 133 66 31
-0.148270 -0.230286 -0.610053 135 71 35
-0.148457 -0.229983 -0.608832 133 69 33
-0.148647 -0.229680 -0.607613 129 68 31
-0.148840 -0.229377 -0.606397 127 66 29
-0.149034 -0.229074 -0.605184 127 66 31
-0.149231 -0.228771 -0.603972 126 65 30
-0.149430 -0.228468 -0.602763 122 61 26
-0.149632 -0.228164 -0.601557 120 59 24
-0.149835 -0.227861 -0.600353 116 54 26
-0.150041 -0.227557 -0.599151 114 52 24
-0.150249 -0.227253 -0.597952 114 48 26
-0.150459 -0.226949 -0.596755 114 48 26
-0.150672 -0.226645 -0.595561 116 47 26
-0.150887 -0.226341 -0.594369 115 46 25
-0.150256 -0.226373 -0.593698 115 46 25
-0.150475 -0.226069 -0.592509 112 43 22
-0.150695 -0.225765 -0.591323 104 40 24
-0.150067 -0.225797 -0.590655 99 35 19
-0.150291 -0.225492 -0.589472 91 33 21
-0.150517 -0.225187 -0.588292 91 33 21
-0.150745 -0.224883 -0.587115 89 33 21
-0.150976 -0.224578 -0.585939 91 35 23
-0.150352 -0.224610 -0.585275 94 38 24
-0.150586 -0.224305 -0.584104 99 43 29
-0.150822 -0.223999 -0.582935 105 50 29
-0.150201 -0.224031 -0.582273 106 51 30
-0.150440 -0.223726 -0.581107 105 46 26
-0.149820 -0.223758 -0.580447 97 38 18
-0.150063 -0.223452 -0.579285 98 26 15
-0.150308 -0.223146 -0.578126 98 26 15
-0.149690 -0.223178 -0.577468 98 26 17
-0.149072 -0.223210 -0.576810 98 26 17
-0.149322 -0.222904 -0.575655 97 25 18
-0.148705 -0.222936 -0.574998 97 25 18
-0.148958 -0.222629 -0.573847 97 25 16
-0.148342 -0.222661 -0.573192 96 24 15
-0.147726 -0.222693 -0.572536 97 25 16
-0.147110 -0.222724 -0.571881 96 24 15
-0.146494 -0.222756 -0.571225 97 25 16
-0.145878 -0.222788 -0.570570 95 23 14
-0.144385 -0.223157 -0.570402 94 23 14
-0.144646 -0.222851 -0.569259 96 25 16
-0.143151 -0.223221 -0.569088 93 30 18
-0.142534 -0.223253 -0.568432 94 31 19
-0.141035 -0.223623 -0.568257 94 34 21
-0.140417 -0.223654 -0.567600 94 34 21
-0.138915 -0.224025 -0.567422 94 34 21
-0.137410 -0.224395 -0.567242 95 35 22
-0.136790 -0.224427 -0.566581 95 35 22
-0.135282 -0.224797 -0.566398 96 36 23
-0.133772 -0.225168 -0.566212 95 37 23
-0.133149 -0.225200 -0.565549 95 37 23
-0.131636 -0.225571 -0.565359 94 38 24
-0.130120 -0.225942 -0.565167 94 38 24
-0.128603 -0.226313 -0.564972 94 47 25
-0.127082 -0.226684 -0.564776 115 68 46
-0.125560 -0.227055 -0.564576 113 77 40
-0.124035 -0.227427 -0.564374 114 78 41
-0.122509 -0.227798 -0.564170 114 85 44
-0.120081 -0.228509 -0.564428 111 82 41
-0.118548 -0.228881 -0.564218 105 78 41
-0.117014 -0.229253 -0.564006 107 80 43
-0.114575 -0.229964 -0.564252 117 91 49
-0.113034 -0.230337 -0.564033 118 92 50
-0.109683 -0.231388 -0.564729 117 86 45
-0.107231 -0.232100 -0.564961 101 70 29
-0.104774 -0.232813 -0.565187 95 51 31
-0.102312 -0.233525 -0.565409 93 49 29
-0.099846 -0.234238 -0.565627 95 51 35
-0.097376 -0.234951 -0.565839 97 53 37
-0.093990 -0.236005 -0.566498 97 55 41
-0.088773 -0.237738 -0.568050 98 56 42
-0.086284 -0.238452 -0.568243 102 62 47
-0.082877 -0.239506 -0.568879 103 63 48
-0.080378 -0.240221 -0.569061 101 68 51
-0.143121 -0.235857 -0.635164 89 44 47
-0.143264 -0.235558 -0.633895 107 33 34
-0.143409 -0.235259 -0.632628 107 33 34
-0.144372 -0.234626 -0.630808 110 33 26
-0.144523 -0.234327 -0.629547 113 36 29
-0.144677 -0.234027 -0.628288 113 38 28
-0.144832 -0.233727 -0.627032 119 44 34
-0.144990 -0.233428 -0.625778 124 61 36
-0.145151 -0.233128 -0.624527 130 67 42
-0.145313 -0.232828 -0.623278 129 67 35
-0.145478 -0.232528 -0.622031 128 66 34
-0.146468 -0.231893 -0.620241 130 66 32
-0.146639 -0.231593 -0.619001 131 67 33
-0.146811 -0.231292 -0.617763 133 66 31
-0.146986 -0.230992 -0.616527 131 64 29
-0.147164 -0.230691 -0.615293 131 64 29
-0.147343 -0.230390 -0.614062 131 64 29
-0.147525 -0.230089 -0.612834 130 63 28
-0.147709 -0.229788 -0.611607 133 66 31
-0.147895 -0.229487 -0.610384 132 68 34
-0.148083 -0.229185 -0.609162 132 68 34
-0.148274 -0.228884 -0.607943 131 67 31
-0.148467 -0.228582 -0.606727 130 66 30
-0.148662 -0.228280 -0.605512 129 65 29
-0.148860 -0.227979 -0.604300 128 64 28
-0.149059 -0.227677 -0.603091 123 62 27
-0.149261 -0.227375 -0.601884 121 60 25
-0.148624 -0.227407 -0.601206 118 56 26
-0.148829 -0.227105 -0.600002 114 52 22
-0.149037 -0.226803 -0.598801 112 49 26
-0.149247 -0.226500 -0.597603 111 48 25
-0.149459 -0.226198 -0.596406 111 45 25
-0.149673 -0.225895 -0.595213 110 44 24
-0.149890 -0.225592 -0.594021 110 44 24
-0.149259 -0.225625 -0.593350 106 40 20
-0.149479 -0.225322 -0.592162 100 37 23
-0.148850 -0.225354 -0.591492 97 34 20
-0.149073 -0.225051 -0.590308 91 33 21
-0.149299 -0.224747 -0.589126 91 33 21
-0.149527 -0.224444 -0.587947 89 33 21
-0.149757 -0.224141 -0.586770 93 37 25
-0.149132 -0.224173 -0.586105 98 42 26
-0.149366 -0.223869 -0.584932 105 49 33
-0.149601 -0.223565 -0.583761 113 59 33
-0.148979 -0.223597 -0.583098 114 60 34
-0.149218 -0.223293 -0.581930 111 53 28
-0.148596 -0.223325 -0.581269 102 44 19
-0.148839 -0.223021 -0.580105 99 29 15
-0.149084 -0.222717 -0.578944 97 27 13
-0.148464 -0.222749 -0.578285 98 26 17
-0.148713 -0.222444 -0.577127 98 26 17
-0.148963 -0.222140 -0.575972 97 25 18
-0.148346 -0.222171 -0.575315 97 25 18
-0.147729 -0.222203 -0.574658 97 25 18
-0.147112 -0.222235 -0.574002 96 24 17
-0.146495 -0.222266 -0.573345 97 25 16
-0.145878 -0.222298 -0.572688 96 24 15
-0.146136 -0.221993 -0.571541 96 24 15
-0.144643 -0.222361 -0.571375 95 23 14
-0.144026 -0.222393 -0.570718 90 22 12
-0.143409 -0.222425 -0.570061 94 26 16
-0.141912 -0.222793 -0.569890 93 30 18
-0.141294 -0.222825 -0.569232 94 31 19
-0.140676 -0.222857 -0.568575 94 34 21
-0.140058 -0.222889 -0.567917 94 34 21
-0.138555 -0.223257 -0.567740 94 34 21
-0.137050 -0.223626 -0.567560 95 35 22
-0.135543 -0.223996 -0.567378 95 35 22
-0.134033 -0.224365 -0.567194 96 36 23
-0.132521 -0.224734 -0.567007 96 38 24
-0.131897 -0.224766 -0.566343 96 38 24
-0.130382 -0.225136 -0.566153 95 39 25
-0.128865 -0.225505 -0.565960 93 37 23
-0.127345 -0.225875 -0.565765 108 66 36
-0.125823 -0.226245 -0.565567 115 73 43
-0.124299 -0.226615 -0.565367 110 77 39
-0.122773 -0.226985 -0.565165 112 79 41
-0.121244 -0.227355 -0.564960 111 85 45
-0.118814 -0.228063 -0.565218 105 79 39
-0.117280 -0.228434 -0.565007 104 77 42
-0.115743 -0.228804 -0.564794 109 82 47
-0.113302 -0.229513 -0.565040 117 91 49
-0.111759 -0.229884 -0.564821 119 93 51
-0.108405 -0.230931 -0.565518 117 84 44
-0.105950 -0.231641 -0.565749 101 68 28
-0.103491 -0.232350 -0.565976 95 51 31
-0.101027 -0.233060 -0.566198 94 50 30
-0.098559 -0.233770 -0.566415 97 52 39
-0.096086 -0.234481 -0.566627 98 53 40
-0.093608 -0.235191 -0.566835 98 56 42
-0.088388 -0.236918 -0.568390 100 58 44
-0.084984 -0.237968 -0.569033 100 63 47
-0.081574 -0.239018 -0.569670 101 64 48
-0.142732 -0.235028 -0.635508 88 43 46
-0.142876 -0.234731 -0.634238 107 33 34
-0.143022 -0.234433 -0.632970 107 33 34
-0.143986 -0.233803 -0.631149 110 33 28
-0.144138 -0.233505 -0.629887 113 36 31
-0.144292 -0.233207 -0.628628 113 36 27
-0.144448 -0.232909 -0.627371 117 40 31
-0.144607 -0.232610 -0.626117 124 54 35
-0.144768 -0.232312 -0.624865 128 58 39
-0.144931 -0.232013 -0.623615 127 59 31
-0.145096 -0.231714 -0.622368 130 62 34
-0.145264 -0.231415 -0.621123 132 65 32
-0.145434 -0.231116 -0.619881 133 66 33
-0.145606 -0.230817 -0.618641 132 65 32
-0.145781 -0.230518 -0.617403 131 64 31
-0.145957 -0.230219 -0.616168 131 63 30
-0.146136 -0.229919 -0.614935 131 63 30
-0.146317 -0.229620 -0.613705 128 61 28
-0.146501 -0.229320 -0.612477 131 64 31
-0.146687 -0.229020 -0.611251 134 67 34
-0.146875 -0.228720 -0.610028 134 67 34
-0.147065 -0.228420 -0.608807 131 67 33
-0.147257 -0.228120 -0.607589 130 66 32
-0.147452 -0.227820 -0.606373 129 65 31
-0.147649 -0.227520 -0.605159 128 64 30
-0.147848 -0.227219 -0.603948 123 62 27
-0.148050 -0.226919 -0.602739 123 62 27
-0.148254 -0.226618 -0.601533 120 58 26
-0.148460 -0.226317 -0.600329 116 54 22
-0.148668 -0.226016 -0.599127 112 49 24
-0.148878 -0.225715 -0.597928 111 48 23
-0.149091 -0.225414 -0.596731 108 45 24
-0.149306 -0.225112 -0.595537 106 43 22
-0.148674 -0.225145 -0.594864 106 42 24
-0.148893 -0.224843 -0.593674 101 37 19
-0.149114 -0.224542 -0.592485 98 35 21
-0.148484 -0.224574 -0.591815 97 34 20
-0.148708 -0.224272 -0.590631 93 35 21
-0.148934 -0.223971 -0.589448 94 36 22
-0.149163 -0.223669 -0.588268 96 38 24
-0.149394 -0.223366 -0.587091 101 43 29
-0.148769 -0.223399 -0.586426 104 47 26
-0.149003 -0.223096 -0.585252 112 55 34
-0.148379 -0.223128 -0.584588 118 63 32
-0.148617 -0.222826 -0.583417 120 65 34
-0.148857 -0.222523 -0.582249 116 61 30
-0.148235 -0.222555 -0.581588 104 49 18
-0.148478 -0.222252 -0.580424 103 33 17
-0.148724 -0.221950 -0.579262 98 28 12
-0.148105 -0.221981 -0.578602 98 26 15
-0.148353 -0.221678 -0.577444 98 26 15
-0.148605 -0.221375 -0.576288 98 26 17
-0.147987 -0.221407 -0.575631 98 26 17
-0.147370 -0.221439 -0.574975 97 25 18
-0.146753 -0.221470 -0.574318 96 24 17
-0.146136 -0.221502 -0.573661 97 25 16
-0.145519 -0.221534 -0.573005 96 24 15
-0.145778 -0.221230 -0.571857 96 24 15
-0.144285 -0.221597 -0.571691 95 23 14
-0.143668 -0.221629 -0.571035 90 22 12
-0.143051 -0.221660 -0.570378 95 27 17
-0.141553 -0.222028 -0.570207 91 31 18
-0.140935 -0.222059 -0.569550 92 32 19
-0.140317 -0.222091 -0.568892 94 34 21
-0.138814 -0.222458 -0.568716 94 34 21
-0.137310 -0.222826 -0.568539 95 35 22
-0.135803 -0.223194 -0.568358 95 35 22
-0.135181 -0.223226 -0.567697 95 35 22
-0.132783 -0.223929 -0.567991 96 36 23
-0.131269 -0.224297 -0.567803 94 38 24
-0.130644 -0.224329 -0.567138 95 39 25
-0.129127 -0.224697 -0.566947 93 43 22
-0.127608 -0.225066 -0.566754 112 62 41
-0.126087 -0.225434 -0.566558 114 76 40
-0.124563 -0.225803 -0.566360 113 75 39
-0.123037 -0.226171 -0.566159 109 78 39
-0.121509 -0.226540 -0.565957 111 80 41
-0.119978 -0.226909 -0.565751 106 79 44
-0.117546 -0.227614 -0.566009 102 75 40
-0.116911 -0.227647 -0.565333 103 76 43
-0.114471 -0.228353 -0.565584 110 83 50
-0.112028 -0.229059 -0.565830 117 91 49
-0.110484 -0.229428 -0.565610 119 93 51
-0.107126 -0.230471 -0.566307 117 84 44
-0.104669 -0.231178 -0.566539 100 67 27
-0.102207 -0.231885 -0.566765 95 51 33
-0.100650 -0.232255 -0.566531 94 50 32
-0.097270 -0.233300 -0.567204 95 53 39
-0.094794 -0.234007 -0.567417 98 56 42
-0.092314 -0.234715 -0.567624 100 58 44
-0.087090 -0.236435 -0.569181 100 58 44
-0.084598 -0.237143 -0.569375 99 64 47
-0.081185 -0.238189 -0.570013 103 68 51
-0.142201 -0.234496 -0.637124 105 60 63
-0.142343 -0.234200 -0.635851 88 43 46
-0.142488 -0.233904 -0.634580 107 33 34
-0.143450 -0.233277 -0.632754 107 33 34
-0.142784 -0.233311 -0.632046 110 33 28
-0.142935 -0.233014 -0.630783 112 35 30
-0.143089 -0.232717 -0.629522 112 35 26
-0.144064 -0.232090 -0.627710 114 37 28
-0.144223 -0.231793 -0.626455 118 44 29
-0.144385 -0.231496 -0.625203 122 48 33
-0.144549 -0.231198 -0.623953 121 52 26
-0.144715 -0.230901 -0.622705 131 62 36
-0.144883 -0.230604 -0.621459 133 66 33
-0.145054 -0.230306 -0.620216 133 66 33
-0.145227 -0.230008 -0.618976 132 65 32
-0.145402 -0.229710 -0.617738 131 64 31
-0.145579 -0.229412 -0.616502 132 64 31
-0.144928 -0.229446 -0.615809 131 63 30
-0.145941 -0.228816 -0.614038 129 61 28
-0.146125 -0.228518 -0.612809 132 64 31
-0.146311 -0.228220 -0.611583 132 68 34
-0.146500 -0.227921 -0.610359 132 68 34
-0.146691 -0.227622 -0.609138 133 69 35
-0.146046 -0.227656 -0.608452 131 67 33
-0.146241 -0.227357 -0.607234 129 65 31
-0.146437 -0.227058 -0.606019 128 64 30
-0.146636 -0.226759 -0.604806 126 62 28
-0.146837 -0.226460 -0.603595 126 62 28
-0.147040 -0.226160 -0.602387 121 59 27
-0.147246 -0.225861 -0.601181 118 56 24
-0.147454 -0.225562 -0.599978 112 49 24
-0.147664 -0.225262 -0.598777 111 48 23
-0.147876 -0.224962 -0.597579 107 44 23
-0.148091 -0.224662 -0.596382 106 43 22
-0.147458 -0.224695 -0.595709 104 40 22
-0.147676 -0.224395 -0.594516 101 37 19
-0.147896 -0.224095 -0.593326 98 35 21
-0.147265 -0.224127 -0.592655 98 35 21
-0.147489 -0.223827 -0.591468 96 36 23
-0.147715 -0.223526 -0.590284 97 37 24
-0.147943 -0.223226 -0.589103 101 41 26
-0.148173 -0.222925 -0.587923 106 46 31
-0.147547 -0.222957 -0.587257 111 53 28
-0.147781 -0.222657 -0.586081 118 60 35
-0.147156 -0.222689 -0.585416 124 70 32
-0.147393 -0.222388 -0.584244 125 71 33
-0.147632 -0.222086 -0.583074 121 64 30
-0.147874 -0.221785 -0.581907 112 55 21
-0.147252 -0.221817 -0.581245 109 43 23
-0.147497 -0.221516 -0.580082 101 35 15
-0.146877 -0.221548 -0.579421 97 27 13
-0.147125 -0.221246 -0.578261 97 27 13
-0.147376 -0.220944 -0.577103 98 26 17
-0.146758 -0.220976 -0.576445 98 26 17
-0.146140 -0.221008 -0.575788 97 25 18
-0.145521 -0.221040 -0.575130 97 25 18
-0.144903 -0.221071 -0.574472 97 25 16
-0.144285 -0.221103 -0.573814 96 24 15
-0.144544 -0.220801 -0.572665 96 24 15
-0.143048 -0.221167 -0.572498 95 23 14
-0.142430 -0.221198 -0.571840 92 24 14
-0.141812 -0.221230 -0.571183 95 27 17
-0.140313 -0.221596 -0.571011 91 31 18
-0.139693 -0.221628 -0.570352 92 32 19
-0.139074 -0.221660 -0.569693 94 34 23
-0.138454 -0.221691 -0.569034 94 34 23
-0.136949 -0.222057 -0.568857 95 35 24
-0.135442 -0.222424 -0.568677 95 35 24
-0.133932 -0.222790 -0.568495 94 36 24
-0.132420 -0.223157 -0.568311 95 37 25
-0.130016 -0.223858 -0.568601 94 38 24
-0.129390 -0.223890 -0.567935 95 39 25
-0.127871 -0.224257 -0.567743 107 63 31
-0.126350 -0.224624 -0.567549 125 81 49
-0.124827 -0.224991 -0.567353 114 78 37
-0.124197 -0.225023 -0.566683 112 76 35
-0.122671 -0.225390 -0.566483 106 77 38
-0.121142 -0.225757 -0.566281 107 78 39
-0.119611 -0.226125 -0.566076 103 75 45
-0.117177 -0.226828 -0.566335 102 74 44
-0.115640 -0.227195 -0.566124 104 77 44
-0.113198 -0.227898 -0.566375 111 84 51
-0.111656 -0.228266 -0.566158 118 89 48
-0.109206 -0.228970 -0.566400 121 92 51
-0.106752 -0.229674 -0.566638 115 82 42
-0.104293 -0.230377 -0.566870 99 66 26
-0.101830 -0.231082 -0.567098 95 51 33
-0.099362 -0.231786 -0.567321 97 53 35
-0.095980 -0.232826 -0.567995 97 55 41
-0.093502 -0.233531 -0.568207 100 58 44
-0.091019 -0.234236 -0.568415 102 62 47
-0.088533 -0.234942 -0.568617 102 62 47
-0.085126 -0.235983 -0.569266 102 67 52
-0.141812 -0.233666 -0.637468 105 58 59
-0.141955 -0.233371 -0.636194 91 44 45
-0.142100 -0.233076 -0.634923 107 33 34
-0.143063 -0.232452 -0.633096 107 33 34
-0.143214 -0.232157 -0.631831 110 32 30
-0.142549 -0.232191 -0.631124 112 34 32
-0.142704 -0.231896 -0.629862 114 34 28
-0.143680 -0.231271 -0.628050 115 35 29
-0.143840 -0.230975 -0.626794 115 39 25
-0.144002 -0.230680 -0.625541 119 43 29
-0.144167 -0.230384 -0.624290 121 52 26
-0.144333 -0.230088 -0.623042 132 63 37
-0.144502 -0.229792 -0.621796 134 67 32
-0.144674 -0.229495 -0.620552 134 67 32
-0.144847 -0.229199 -0.619311 132 65 30
-0.145023 -0.228903 -0.618072 132 65 30
-0.145201 -0.228606 -0.616836 132 65 30
-0.144550 -0.228640 -0.616143 130 63 28
-0.145564 -0.228013 -0.614370 130 63 30
-0.145748 -0.227716 -0.613141 131 64 31
-0.145935 -0.227419 -0.611914 132 68 34
-0.146125 -0.227122 -0.610690 136 72 38
-0.146316 -0.226825 -0.609468 134 73 38
-0.145672 -0.226858 -0.608783 133 72 37
-0.145867 -0.226560 -0.607564 129 68 33
-0.146064 -0.226263 -0.606348 124 63 28
-0.146264 -0.225965 -0.605135 126 62 28
-0.146465 -0.225667 -0.603924 128 64 30
-0.146669 -0.225370 -0.602715 123 58 27
-0.146875 -0.225072 -0.601508 120 55 24
-0.147084 -0.224773 -0.600304 116 51 24
-0.147295 -0.224475 -0.599103 113 48 21
-0.147508 -0.224177 -0.597904 107 44 21
-0.147723 -0.223878 -0.596707 106 43 20
-0.147090 -0.223911 -0.596034 104 40 22
-0.147309 -0.223612 -0.594840 102 38 20
-0.147529 -0.223314 -0.593650 100 38 21
-0.146899 -0.223346 -0.592979 99 37 20
-0.147123 -0.223047 -0.591791 103 41 24
-0.146494 -0.223079 -0.591122 105 43 26
-0.146721 -0.222780 -0.589938 107 46 24
-0.146951 -0.222481 -0.588757 112 51 29
-0.146324 -0.222513 -0.588089 117 57 28
-0.146557 -0.222214 -0.586912 122 62 33
-0.145931 -0.222246 -0.586246 127 71 32
-0.146168 -0.221947 -0.585072 128 72 33
-0.146407 -0.221647 -0.583900 126 70 31
-0.146648 -0.221347 -0.582731 118 62 23
-0.146025 -0.221379 -0.582068 115 52 27
-0.146270 -0.221079 -0.580903 105 42 17
-0.145648 -0.221111 -0.580241 99 29 15
-0.145896 -0.220811 -0.579079 98 28 14
-0.146146 -0.220511 -0.577920 98 26 17
-0.145527 -0.220543 -0.577261 98 26 17
-0.144907 -0.220574 -0.576602 97 25 18
-0.144288 -0.220606 -0.575943 97 25 18
-0.143669 -0.220638 -0.575283 97 25 18
-0.143049 -0.220670 -0.574624 96 24 17
-0.143308 -0.220369 -0.573473 95 24 15
-0.141811 -0.220733 -0.573306 94 23 14
-0.141191 -0.220765 -0.572647 92 24 14
-0.140572 -0.220797 -0.571988 95 27 17
-0.139953 -0.220829 -0.571329 92 32 19
-0.138450 -0.221193 -0.571156 92 32 19
-0.137830 -0.221225 -0.570496 94 34 21
-0.137209 -0.221257 -0.569835 94 34 21
-0.135702 -0.221622 -0.569658 95 35 22
-0.134193 -0.221987 -0.569477 95 35 22
-0.132682 -0.222352 -0.569295 94 36 22
-0.131168 -0.222717 -0.569110 95 37 23
-0.129652 -0.223082 -0.568922 94 38 22
-0.129026 -0.223114 -0.568256 100 44 28
-0.126613 -0.223813 -0.568540 121 80 41
-0.125091 -0.224179 -0.568346 122 81 42
-0.123566 -0.224544 -0.568149 116 81 37
-0.122935 -0.224577 -0.567478 116 81 37
-0.121406 -0.224943 -0.567277 105 75 39
-0.119876 -0.225309 -0.567074 105 75 39
-0.118343 -0.225675 -0.566869 101 75 44
-0.115907 -0.226375 -0.567128 102 76 45
-0.114368 -0.226741 -0.566916 106 79 46
-0.111924 -0.227441 -0.567167 109 82 49
-0.110380 -0.227808 -0.566949 118 87 46
-0.107928 -0.228509 -0.567191 121 90 49
-0.105471 -0.229210 -0.567429 114 81 41
-0.103010 -0.229911 -0.567661 99 66 26
-0.100544 -0.230612 -0.567889 95 54 35
-0.098074 -0.231314 -0.568112 96 55 36
-0.094688 -0.232350 -0.568787 98 56 42
-0.092208 -0.233052 -0.568999 102 60 46
-0.089723 -0.233754 -0.569206 101 64 48
-0.087234 -0.234457 -0.569409 101 64 48
-0.142235 -0.232508 -0.637249 102 55 56
-0.142380 -0.232215 -0.635976 91 44 45
-0.142527 -0.231921 -0.634706 107 34 32
-0.141860 -0.231956 -0.633996 107 34 32
-0.142011 -0.231662 -0.632729 110 32 30
-0.142163 -0.231368 -0.631465 110 32 30
-0.142318 -0.231074 -0.630202 112 32 26
-0.142475 -0.230780 -0.628943 114 34 28
-0.142635 -0.230486 -0.627685 113 37 25
-0.142797 -0.230192 -0.626430 116 40 28
-0.142961 -0.229897 -0.625178 120 52 26
-0.143127 -0.229603 -0.623928 131 63 37
-0.143295 -0.229308 -0.622680 134 67 32
-0.143466 -0.229013 -0.621434 133 66 31
-0.143639 -0.228719 -0.620192 132 65 30
-0.143814 -0.228424 -0.618951 132 65 30
-0.143992 -0.228129 -0.617713 132 65 30
-0.144172 -0.227833 -0.616477 130 63 28
-0.144354 -0.227538 -0.615244 130 63 30
-0.144538 -0.227243 -0.614013 131 64 31
-0.144725 -0.226947 -0.612784 132 68 34
-0.144913 -0.226651 -0.611558 138 74 40
-0.145105 -0.226356 -0.610334 136 75 40
-0.144459 -0.226389 -0.609648 134 73 38
-0.144654 -0.226093 -0.608428 129 68 33
-0.144850 -0.225797 -0.607210 124 63 28
-0.145049 -0.225501 -0.605994 125 60 29
-0.145251 -0.225204 -0.604782 128 63 32
-0.145454 -0.224908 -0.603571 124 59 28
-0.145660 -0.224611 -0.602363 121 56 25
-0.145868 -0.224315 -0.601157 118 53 26
-0.146078 -0.224018 -0.599954 117 52 25
-0.146291 -0.223721 -0.598753 113 47 23
-0.146505 -0.223424 -0.597554 110 44 20
-0.145871 -0.223457 -0.596880 106 43 22
-0.146089 -0.223160 -0.595685 104 41 20
-0.146310 -0.222862 -0.594492 104 42 23
-0.146532 -0.222565 -0.593302 104 42 23
-0.145902 -0.222597 -0.592631 107 45 26
-0.146128 -0.222300 -0.591444 111 49 30
-0.146356 -0.222002 -0.590260 115 54 28
-0.146587 -0.221704 -0.589079 118 57 31
-0.145959 -0.221736 -0.588411 123 63 32
-0.146193 -0.221438 -0.587233 125 65 34
-0.145567 -0.221471 -0.586567 128 72 33
-0.145805 -0.221172 -0.585392 131 75 36
-0.146044 -0.220874 -0.584220 130 75 33
-0.145420 -0.220906 -0.583556 125 70 28
-0.145663 -0.220608 -0.582388 120 60 29
-0.145041 -0.220640 -0.581725 112 52 21
-0.145287 -0.220341 -0.580560 102 35 18
-0.144665 -0.220373 -0.579899 97 30 13
-0.144915 -0.220074 -0.578737 98 26 17
-0.144295 -0.220106 -0.578077 98 26 17
-0.143674 -0.220138 -0.577417 97 25 18
-0.143928 -0.219839 -0.576260 97 25 18
-0.143309 -0.219871 -0.575601 97 25 18
-0.142690 -0.219903 -0.574942 96 24 17
-0.142070 -0.219934 -0.574283 95 24 15
-0.141451 -0.219966 -0.573624 94 23 14
-0.140832 -0.219998 -0.572965 92 24 14
-0.140212 -0.220030 -0.572306 96 28 18
-0.139593 -0.220062 -0.571647 94 31 21
-0.138090 -0.220425 -0.571474 96 33 23
-0.137469 -0.220457 -0.570814 94 34 23
-0.135963 -0.220820 -0.570638 94 34 23
-0.134454 -0.221183 -0.570460 94 34 21
-0.133831 -0.221215 -0.569797 95 35 22
-0.132319 -0.221579 -0.569615 94 36 22
-0.130805 -0.221943 -0.569430 95 37 23
-0.129288 -0.222307 -0.569244 94 39 18
-0.128662 -0.222339 -0.568577 121 66 45
-0.126248 -0.223035 -0.568863 121 82 35
-0.124725 -0.223399 -0.568669 122 83 36
-0.123199 -0.223763 -0.568472 118 83 37
-0.121671 -0.224128 -0.568273 114 79 33
-0.120141 -0.224492 -0.568072 102 75 38
-0.118609 -0.224857 -0.567868 103 76 39
-0.117074 -0.225222 -0.567662 104 78 47
-0.114635 -0.225919 -0.567921 104 78 47
-0.113095 -0.226284 -0.567709 105 78 45
-0.110648 -0.226981 -0.567960 107 80 47
-0.108197 -0.227679 -0.568206 116 85 44
-0.106648 -0.228045 -0.567984 120 89 48
-0.104189 -0.228743 -0.568221 114 77 43
-0.101725 -0.229441 -0.568454 98 61 27
-0.099257 -0.230140 -0.568682 96 55 36
-0.096784 -0.230839 -0.568905 98 57 38
-0.094307 -0.231538 -0.569123 100 59 42
-0.090913 -0.232570 -0.569792 103 62 45
-0.088425 -0.233270 -0.569999 102 65 49
-0.085934 -0.233970 -0.570201 104 67 51
-0.141846 -0.231680 -0.637592 100 53 54
-0.141992 -0.231388 -0.636319 90 43 44
-0.142139 -0.231095 -0.635048 107 34 32
-0.142289 -0.230803 -0.633779 107 34 32
-0.141624 -0.230837 -0.633071 110 32 30
-0.141777 -0.230545 -0.631805 110 32 30
-0.141933 -0.230252 -0.630543 112 32 26
-0.142091 -0.229960 -0.629282 114 34 28
-0.142251 -0.229667 -0.628024 112 35 26
-0.142413 -0.229374 -0.626769 114 37 28
-0.142578 -0.229081 -0.625516 119 50 27
-0.142745 -0.228788 -0.624265 130 61 38
-0.142914 -0.228495 -0.623017 132 65 32
-0.143085 -0.228202 -0.621771 133 66 33
-0.143259 -0.227908 -0.620527 132 65 32
-0.143435 -0.227615 -0.619286 132 65 32
-0.143613 -0.227321 -0.618047 132 65 32
-0.143794 -0.227027 -0.616811 131 64 31
-0.143976 -0.226733 -0.615577 130 63 30
-0.144161 -0.226439 -0.614346 131 64 31
-0.144348 -0.226145 -0.613116 133 69 35
-0.143701 -0.226178 -0.612427 137 73 39
-0.143891 -0.225884 -0.611202 136 75 40
-0.144084 -0.225590 -0.609979 135 74 39
-0.143439 -0.225623 -0.609292 130 69 34
-0.143635 -0.225328 -0.608073 124 63 28
-0.143834 -0.225033 -0.606855 125 60 29
-0.144035 -0.224739 -0.605641 126 61 30
-0.144238 -0.224444 -0.604428 124 59 28
-0.144443 -0.224148 -0.603218 122 57 26
-0.144650 -0.223853 -0.602011 121 56 27
-0.144860 -0.223558 -0.600806 121 56 27
-0.145072 -0.223263 -0.599603 116 51 24
-0.145286 -0.222967 -0.598403 115 50 23
-0.145503 -0.222671 -0.597205 112 49 26
-0.144869 -0.222704 -0.596530 108 45 22
-0.145089 -0.222408 -0.595336 108 45 24
-0.145311 -0.222112 -0.594144 109 46 25
-0.145535 -0.221816 -0.592955 113 52 30
-0.144905 -0.221849 -0.592283 115 54 32
-0.145133 -0.221552 -0.591098 121 61 30
-0.145363 -0.221256 -0.589914 121 61 30
-0.144734 -0.221288 -0.589245 125 65 32
-0.144968 -0.220992 -0.588065 126 66 33
-0.144341 -0.221024 -0.587398 130 71 33
-0.144577 -0.220727 -0.586222 134 75 37
-0.144817 -0.220430 -0.585048 132 77 33
-0.145058 -0.220133 -0.583876 130 75 31
-0.144434 -0.220166 -0.583212 126 70 33
-0.144679 -0.219868 -0.582045 113 57 20
-0.144056 -0.219900 -0.581382 106 40 20
-0.143433 -0.219932 -0.580719 97 31 11
-0.143683 -0.219635 -0.579556 97 26 17
-0.143061 -0.219667 -0.578895 96 25 16
-0.142439 -0.219699 -0.578233 97 25 18
-0.142693 -0.219401 -0.577075 97 25 18
-0.142073 -0.219433 -0.576415 97 25 18
-0.141452 -0.219465 -0.575754 96 24 17
-0.140832 -0.219497 -0.575094 95 24 17
-0.140211 -0.219529 -0.574434 94 23 16
-0.140472 -0.219231 -0.573283 92 24 16
-0.138970 -0.219593 -0.573113 96 28 20
-0.138350 -0.219624 -0.572453 94 34 23
-0.136845 -0.219986 -0.572280 94 34 23
-0.136223 -0.220018 -0.571618 94 34 23
-0.135602 -0.220050 -0.570957 94 34 23
-0.134092 -0.220412 -0.570779 94 34 23
-0.132581 -0.220774 -0.570599 95 35 24
-0.131067 -0.221137 -0.570416 96 36 25
-0.129551 -0.221499 -0.570231 97 37 26
-0.128032 -0.221861 -0.570044 98 47 22
-0.127405 -0.221894 -0.569376 121 70 45
-0.124989 -0.222587 -0.569661 120 84 36
-0.123463 -0.222950 -0.569467 120 84 36
-0.121936 -0.223313 -0.569270 112 80 35
-0.121304 -0.223345 -0.568597 109 77 32
-0.119773 -0.223708 -0.568397 99 73 42
-0.118240 -0.224071 -0.568194 102 76 45
-0.115804 -0.224766 -0.568457 104 81 49
-0.114265 -0.225129 -0.568248 101 78 46
-0.111820 -0.225824 -0.568504 104 77 44
-0.110276 -0.226188 -0.568289 106 79 46
-0.106918 -0.227214 -0.569000 115 84 43
-0.105367 -0.227578 -0.568778 118 87 46
-0.102905 -0.228273 -0.569015 109 72 40
-0.100439 -0.228969 -0.569247 99 62 30
-0.097969 -0.229665 -0.569475 97 58 38
-0.095494 -0.230361 -0.569698 98 59 39
-0.093014 -0.231058 -0.569916 103 62 45
-0.090530 -0.231754 -0.570130 104 63 46
-0.087127 -0.232783 -0.570793 102 67 50
-0.141458 -0.230851 -0.637935 98 51 52
-0.141604 -0.230560 -0.636661 91 44 45
-0.141752 -0.230270 -0.635390 107 34 32
-0.141903 -0.229979 -0.634120 107 34 32
-0.142056 -0.229688 -0.632853 110 32 30
-0.142211 -0.229397 -0.631589 110 32 30
-0.141547 -0.229431 -0.630883 112 32 28
-0.141706 -0.229140 -0.629622 112 32 28
-0.141867 -0.228848 -0.628364 110 33 26
-0.142030 -0.228557 -0.627107 113 36 29
-0.142195 -0.228265 -0.625854 117 47 28
-0.142363 -0.227973 -0.624602 125 55 36
-0.142532 -0.227682 -0.623354 127 59 31
-0.142705 -0.227390 -0.622107 131 63 35
-0.142879 -0.227098 -0.620863 132 65 32
-0.143055 -0.226806 -0.619621 132 65 32
-0.143234 -0.226513 -0.618382 132 65 32
-0.143415 -0.226221 -0.617145 131 64 31
-0.143599 -0.225928 -0.615910 132 65 32
-0.143784 -0.225636 -0.614678 131 64 31
-0.143972 -0.225343 -0.613449 132 68 34
-0.143325 -0.225376 -0.612760 136 72 38
-0.143516 -0.225083 -0.611533 136 75 40
-0.143709 -0.224790 -0.610310 134 73 38
-0.143064 -0.224823 -0.609623 130 68 36
-0.143261 -0.224530 -0.608403 126 64 32
-0.143460 -0.224237 -0.607185 126 61 30
-0.143662 -0.223943 -0.605970 126 61 30
-0.143865 -0.223650 -0.604757 124 59 28
-0.144071 -0.223356 -0.603547 124 59 28
-0.144279 -0.223062 -0.602339 123 58 29
-0.144490 -0.222768 -0.601133 123 58 29
-0.143852 -0.222801 -0.600455 120 58 28
-0.144066 -0.222507 -0.599252 118 56 26
-0.144282 -0.222213 -0.598053 115 52 27
-0.144501 -0.221919 -0.596856 114 51 26
-0.144721 -0.221624 -0.595661 112 49 24
-0.144088 -0.221657 -0.594987 113 50 25
-0.144312 -0.221362 -0.593796 116 53 28
-0.143680 -0.221395 -0.593124 121 58 33
-0.143908 -0.221100 -0.591936 122 62 31
-0.144137 -0.220805 -0.590751 123 63 32
-0.144369 -0.220510 -0.589568 126 66 33
-0.144603 -0.220215 -0.588387 127 67 34
-0.143976 -0.220247 -0.587720 130 71 33
-0.144214 -0.219952 -0.586543 133 74 36
-0.143588 -0.219984 -0.585877 132 77 35
-0.143828 -0.219688 -0.584703 132 77 35
-0.143203 -0.219720 -0.584038 130 74 37
-0.143448 -0.219425 -0.582869 115 59 22
-0.143694 -0.219129 -0.581701 106 43 22
-0.143072 -0.219161 -0.581039 98 35 14
-0.142449 -0.219193 -0.580376 98 27 16
-0.141826 -0.219225 -0.579713 97 26 15
-0.142078 -0.218929 -0.578552 97 25 16
-0.141457 -0.218961 -0.577891 97 25 16
-0.140835 -0.218993 -0.577229 97 25 18
-0.140213 -0.219025 -0.576568 96 24 17
-0.139592 -0.219057 -0.575906 94 23 16
-0.138970 -0.219089 -0.575245 94 23 16
-0.139230 -0.218792 -0.574092 93 25 17
-0.137727 -0.219152 -0.573922 97 29 21
-0.137105 -0.219184 -0.573260 94 34 23
-0.136484 -0.219216 -0.572599 95 35 24
-0.134976 -0.219577 -0.572424 94 34 23
-0.134353 -0.219609 -0.571761 94 34 23
-0.132842 -0.219969 -0.571583 94 34 23
-0.131329 -0.220330 -0.571402 95 35 24
-0.129813 -0.220691 -0.571219 96 36 25
-0.128295 -0.221052 -0.571033 98 38 27
-0.126775 -0.221413 -0.570845 103 54 28
-0.126146 -0.221446 -0.570176 120 71 45
-0.123728 -0.222136 -0.570461 121 87 38
-0.123097 -0.222169 -0.569790 118 84 35
-0.121569 -0.222530 -0.569594 107 76 37
-0.120039 -0.222892 -0.569395 104 73 34
-0.118506 -0.223254 -0.569194 98 72 43
-0.116971 -0.223616 -0.568990 104 78 49
-0.114532 -0.224307 -0.569254 104 81 49
-0.112991 -0.224669 -0.569044 100 77 45
-0.111449 -0.225032 -0.568832 106 76 44
-0.108998 -0.225724 -0.569084 107 77 45
-0.106543 -0.226416 -0.569330 116 83 45
-0.104084 -0.227108 -0.569572 116 83 45
-0.101620 -0.227801 -0.569810 104 67 37
-0.099152 -0.228494 -0.570042 99 62 32
-0.097590 -0.228857 -0.569810 99 60 40
-0.094201 -0.229881 -0.570493 101 62 42
-0.091719 -0.230574 -0.570711 103 64 46
-0.089233 -0.231268 -0.570924 104 65 47
-0.141069 -0.230022 -0.638279 95 48 49
-0.141216 -0.229733 -0.637004 92 45 46
-0.141365 -0.229444 -0.635732 107 34 32
-0.141516 -0.229154 -0.634462 106 33 31
-0.141670 -0.228865 -0.633194 109 31 29
-0.141825 -0.228575 -0.631929 110 32 30
-0.141983 -0.228285 -0.630666 111 31 27
-0.142144 -0.227995 -0.629406 112 32 28
-0.142306 -0.227705 -0.628148 110 33 26
-0.141646 -0.227739 -0.627446 112 35 28
-0.141812 -0.227449 -0.626192 115 41 28
-0.141981 -0.227159 -0.624940 121 47 34
-0.142979 -0.226544 -0.623141 125 56 30
-0.142324 -0.226578 -0.622443 131 62 36
-0.142499 -0.226287 -0.621199 132 65 32
-0.141844 -0.226321 -0.620502 133 66 33
-0.142855 -0.225706 -0.618716 132 65 32
-0.142203 -0.225739 -0.618023 132 65 32
-0.142386 -0.225448 -0.616786 132 65 32
-0.142571 -0.225157 -0.615552 132 65 32
-0.142759 -0.224866 -0.614321 132 68 34
-0.142948 -0.224574 -0.613092 136 72 38
-0.143140 -0.224283 -0.611865 134 73 38
-0.143335 -0.223991 -0.610641 131 70 35
-0.142689 -0.224024 -0.609954 131 66 35
-0.142887 -0.223732 -0.608733 128 63 32
-0.142243 -0.223765 -0.608048 126 61 30
-0.142444 -0.223473 -0.606831 126 61 30
-0.142647 -0.223181 -0.605616 126 61 30
-0.142852 -0.222889 -0.604404 126 61 30
-0.143060 -0.222597 -0.603194 125 60 29
-0.143270 -0.222304 -0.601987 126 61 30
-0.143482 -0.222012 -0.600782 123 61 29
-0.143697 -0.221719 -0.599579 122 60 28
-0.143060 -0.221752 -0.598902 118 56 28
-0.143278 -0.221459 -0.597703 116 54 26
-0.143498 -0.221166 -0.596506 114 51 26
-0.143721 -0.220873 -0.595312 116 53 28
-0.143088 -0.220905 -0.594638 120 58 30
-0.143313 -0.220612 -0.593448 123 61 33
-0.142682 -0.220644 -0.592775 126 64 32
-0.142911 -0.220351 -0.591588 126 64 32
-0.143142 -0.220057 -0.590404 126 67 31
-0.143376 -0.219764 -0.589221 127 68 32
-0.142747 -0.219796 -0.588553 128 69 31
-0.142984 -0.219502 -0.587374 130 71 33
-0.143224 -0.219208 -0.586198 131 76 34
-0.142598 -0.219240 -0.585532 134 79 37
-0.142840 -0.218946 -0.584359 130 76 36
-0.142215 -0.218978 -0.583694 122 68 28
-0.142461 -0.218684 -0.582525 111 50 24
-0.141838 -0.218716 -0.581861 101 40 14
-0.141214 -0.218748 -0.581197 99 32 17
-0.141464 -0.218454 -0.580033 95 28 13
-0.140842 -0.218486 -0.579370 96 25 16
-0.140219 -0.218518 -0.578707 96 25 16
-0.139596 -0.218550 -0.578045 97 25 18
-0.138973 -0.218582 -0.577382 96 24 17
-0.139231 -0.218287 -0.576225 94 23 16
-0.138609 -0.218319 -0.575564 94 23 16
-0.137987 -0.218351 -0.574902 91 26 17
-0.137366 -0.218382 -0.574241 95 30 21
-0.135860 -0.218741 -0.574069 94 34 23
-0.135237 -0.218773 -0.573406 95 35 24
-0.133727 -0.219133 -0.573230 94 34 23
-0.133103 -0.219165 -0.572567 94 34 23
-0.132480 -0.219197 -0.571903 95 35 24
-0.130966 -0.219556 -0.571722 96 36 25
-0.129449 -0.219916 -0.571540 96 36 25
-0.127931 -0.220275 -0.571355 99 39 28
-0.126410 -0.220635 -0.571167 102 53 25
-0.125781 -0.220667 -0.570498 120 71 43
-0.123361 -0.221355 -0.570785 121 87 38
-0.121834 -0.221715 -0.570590 116 82 33
-0.121202 -0.221748 -0.569918 102 72 38
-0.119671 -0.222108 -0.569720 101 71 37
-0.117237 -0.222796 -0.569992 100 71 46
-0.115701 -0.223157 -0.569787 105 76 51
-0.114162 -0.223517 -0.569581 105 79 48
-0.111717 -0.224206 -0.569841 103 77 46
-0.111077 -0.224239 -0.569160 106 75 46
-0.108625 -0.224928 -0.569413 106 75 46
-0.106169 -0.225618 -0.569661 114 82 48
-0.103708 -0.226308 -0.569904 106 74 40
-0.101243 -0.226998 -0.570143 103 65 38
-0.097863 -0.228016 -0.570838 99 61 34
-0.096299 -0.228378 -0.570605 102 63 43
-0.092908 -0.229397 -0.571289 102 63 43
-0.090423 -0.230088 -0.571507 101 66 49
-0.140680 -0.229194 -0.638622 97 48 49
-0.140828 -0.228906 -0.637347 93 44 45
-0.140977 -0.228618 -0.636074 107 34 32
-0.141129 -0.228330 -0.634803 106 33 31
-0.141284 -0.228042 -0.633535 108 32 29
-0.141440 -0.227754 -0.632269 108 32 29
-0.141599 -0.227465 -0.631006 109 31 29
-0.141760 -0.227177 -0.629745 109 31 29
-0.141923 -0.226888 -0.628487 109 32 27
-0.142088 -0.226599 -0.627231 110 33 28
-0.141430 -0.226633 -0.626530 114 37 28
-0.142426 -0.226021 -0.624726 116 39 30
-0.142598 -0.225732 -0.623477 123 53 30
-0.141943 -0.225766 -0.622779 131 61 38
-0.142119 -0.225477 -0.621534 133 66 33
-0.142296 -0.225187 -0.620291 134 67 34
-0.142477 -0.224898 -0.619051 133 66 33
-0.141825 -0.224931 -0.618357 133 66 33
-0.142008 -0.224642 -0.617120 132 65 32
-0.142194 -0.224352 -0.615886 133 66 33
-0.142382 -0.224062 -0.614654 132 68 34
-0.142572 -0.223772 -0.613424 137 73 39
-0.142765 -0.223482 -0.612197 134 73 38
-0.142118 -0.223515 -0.611509 130 69 34
-0.141472 -0.223548 -0.610821 130 65 34
-0.141669 -0.223258 -0.609598 128 63 32
-0.141868 -0.222967 -0.608378 126 61 30
-0.142070 -0.222677 -0.607161 126 61 30
-0.142274 -0.222386 -0.605946 126 61 30
-0.142480 -0.222095 -0.604733 129 64 33
-0.142688 -0.221804 -0.603522 127 65 33
-0.142049 -0.221837 -0.602842 126 64 32
-0.142260 -0.221546 -0.601635 126 64 32
-0.142474 -0.221255 -0.600430 123 61 29
-0.142691 -0.220964 -0.599228 119 57 27
-0.142909 -0.220672 -0.598029 118 56 26
-0.142274 -0.220705 -0.597353 115 53 25
-0.142496 -0.220413 -0.596157 118 56 28
-0.141862 -0.220446 -0.595482 122 60 30
-0.142087 -0.220154 -0.594290 126 64 34
-0.141454 -0.220186 -0.593616 127 65 33
-0.141683 -0.219894 -0.592427 128 66 34
-0.141914 -0.219602 -0.591241 128 69 33
-0.142147 -0.219310 -0.590057 128 69 33
-0.141517 -0.219342 -0.589387 127 68 32
-0.141754 -0.219050 -0.588206 129 70 34
-0.141993 -0.218758 -0.587028 131 76 34
-0.141366 -0.218790 -0.586361 134 79 37
-0.141608 -0.218497 -0.585186 131 78 35
-0.140982 -0.218529 -0.584520 126 73 30
-0.141227 -0.218236 -0.583349 118 61 29
-0.140602 -0.218268 -0.582684 110 53 21
-0.139977 -0.218301 -0.582019 105 41 25
-0.140227 -0.218008 -0.580853 95 31 15
-0.139604 -0.218040 -0.580189 96 25 16
-0.138980 -0.218072 -0.579525 96 25 16
-0.138356 -0.218104 -0.578862 96 24 17
-0.137732 -0.218136 -0.578198 96 24 17
-0.137989 -0.217842 -0.577039 94 23 16
-0.137366 -0.217874 -0.576376 94 23 16
-0.136743 -0.217906 -0.575713 91 26 17
-0.136121 -0.217938 -0.575051 95 30 21
-0.135498 -0.217970 -0.574388 94 34 23
-0.134875 -0.218002 -0.573725 94 34 23
-0.133365 -0.218360 -0.573551 94 34 23
-0.131852 -0.218718 -0.573373 94 34 23
-0.131227 -0.218750 -0.572708 95 35 24
-0.129712 -0.219108 -0.572527 96 36 25
-0.128193 -0.219466 -0.572344 96 36 25
-0.126673 -0.219825 -0.572158 99 39 28
-0.126045 -0.219857 -0.571489 104 55 27
-0.124521 -0.220215 -0.571300 121 72 44
-0.122995 -0.220574 -0.571108 118 86 41
-0.121467 -0.220933 -0.570914 111 79 34
-0.119936 -0.221291 -0.570718 102 72 40
-0.118403 -0.221650 -0.570519 104 74 42
-0.116868 -0.222009 -0.570317 102 74 46
-0.115331 -0.222369 -0.570114 105 77 49
-0.112888 -0.223055 -0.570379 106 78 48
-0.110441 -0.223741 -0.570639 105 77 47
-0.109800 -0.223774 -0.569957 107 77 45
-0.107346 -0.224460 -0.570209 106 76 44
-0.104887 -0.225147 -0.570457 107 75 43
-0.102424 -0.225834 -0.570701 100 68 36
-0.099956 -0.226521 -0.570939 100 65 39
-0.097484 -0.227208 -0.571173 99 64 38
-0.095007 -0.227896 -0.571401 101 65 44
-0.092526 -0.228584 -0.571625 102 66 45
-0.089126 -0.229599 -0.572304 104 69 52
-0.141108 -0.228044 -0.638400 95 46 47
-0.141257 -0.227758 -0.637125 93 44 45
-0.141408 -0.227471 -0.635853 106 33 31
-0.140743 -0.227505 -0.635145 106 33 31
-0.140897 -0.227219 -0.633876 108 32 29
-0.141055 -0.226932 -0.632610 108 32 29
-0.141214 -0.226645 -0.631346 109 31 29
-0.141376 -0.226358 -0.630084 109 31 29
-0.140715 -0.226392 -0.629381 109 32 27
-0.140880 -0.226104 -0.628123 109 32 27
-0.141047 -0.225817 -0.626868 112 35 28
-0.141216 -0.225530 -0.625615 114 37 30
-0.141388 -0.225242 -0.624364 119 49 28
-0.141562 -0.224954 -0.623116 128 58 37
-0.141738 -0.224666 -0.621870 133 66 33
-0.141917 -0.224378 -0.620626 134 67 34
-0.142098 -0.224090 -0.619385 133 66 33
-0.142281 -0.223802 -0.618147 132 65 32
-0.141630 -0.223835 -0.617454 131 64 31
-0.141816 -0.223547 -0.616219 133 66 33
-0.142005 -0.223259 -0.614986 135 71 37
-0.142196 -0.222970 -0.613756 137 73 39
-0.142389 -0.222681 -0.612528 134 73 38
-0.141743 -0.222714 -0.611840 130 69 34
-0.141096 -0.222748 -0.611153 129 68 33
-0.142138 -0.222137 -0.609394 127 66 31
-0.141494 -0.222170 -0.608709 124 62 30
-0.141696 -0.221880 -0.607491 124 62 30
-0.141901 -0.221591 -0.606275 127 65 33
-0.142108 -0.221302 -0.605061 130 68 36
-0.142317 -0.221012 -0.603850 127 67 34
-0.141677 -0.221045 -0.603170 127 67 34
-0.141889 -0.220755 -0.601962 126 66 33
-0.142104 -0.220465 -0.600757 122 62 29
-0.142321 -0.220176 -0.599555 120 58 28
-0.142540 -0.219885 -0.598354 118 56 26
-0.141905 -0.219918 -0.597679 116 54 26
-0.141270 -0.219951 -0.597003 119 57 29
-0.141493 -0.219660 -0.595807 124 62 32
-0.141719 -0.219370 -0.594614 127 65 35
-0.141087 -0.219402 -0.593941 128 66 34
-0.141316 -0.219112 -0.592751 129 67 35
-0.141547 -0.218821 -0.591564 130 69 34
-0.140917 -0.218854 -0.590893 128 67 32
-0.141152 -0.218563 -0.589710 127 66 31
-0.141389 -0.218272 -0.588529 128 67 32
-0.140761 -0.218304 -0.587860 130 75 33
-0.141001 -0.218013 -0.586683 133 78 36
-0.141244 -0.217722 -0.585508 132 79 36
-0.140618 -0.217754 -0.584841 131 78 35
-0.140864 -0.217462 -0.583670 127 73 35
-0.140239 -0.217494 -0.583005 118 64 26
-0.139614 -0.217526 -0.582340 107 43 25
-0.139865 -0.217235 -0.581173 98 34 16
-0.139241 -0.217267 -0.580509 97 26 17
-0.138617 -0.217299 -0.579845 96 25 16
-0.137993 -0.217331 -0.579182 97 25 18
-0.137369 -0.217363 -0.578518 96 24 17
-0.136746 -0.217395 -0.577854 94 23 16
-0.136122 -0.217427 -0.577190 92 21 14
