ply
format ascii 1.0
element vertex 1252
property float x
property float y
property float z
property uchar red
property uchar green
property uchar blue
end_header
0.089920 0.154149 0.843000 143 129 123
0.091417 0.153966 0.842000 147 133 127
0.093021 0.153966 0.842000 146 133 120
0.094400 0.153600 0.840000 143 130 117
0.095886 0.153417 0.839000 141 122 109
0.097251 0.153051 0.837000 141 122 109
0.098610 0.152686 0.835000 145 121 107
0.100080 0.152503 0.834000 145 121 107
0.102278 0.153417 0.839000 145 120 102
0.104124 0.153783 0.841000 142 117 99
0.091429 0.117029 0.640000 130 96 76
0.092503 0.116846 0.639000 130 94 75
0.093573 0.116663 0.638000 123 87 68
0.096274 0.118491 0.648000 118 76 64
0.097358 0.118309 0.647000 112 70 58
0.098438 0.118126 0.646000 112 66 58
0.099514 0.117943 0.645000 109 63 55
0.100430 0.117577 0.643000 107 54 50
0.101497 0.117394 0.642000 96 43 39
0.102400 0.117029 0.640000 91 31 27
0.103457 0.116846 0.639000 89 29 25
0.104510 0.116663 0.638000 94 29 27
0.105560 0.116480 0.637000 97 32 30
0.106606 0.116297 0.636000 88 38 35
0.107817 0.116297 0.636000 94 44 41
0.108857 0.116114 0.635000 123 107 102
0.110067 0.116114 0.635000 137 121 116
0.111101 0.115931 0.634000 124 125 114
0.112309 0.115931 0.634000 118 119 108
0.113516 0.115931 0.634000 111 112 106
0.114543 0.115749 0.633000 110 111 105
0.115749 0.115749 0.633000 110 111 107
0.117693 0.116480 0.637000 112 113 109
0.118720 0.116297 0.636000 115 116 112
0.119931 0.116297 0.636000 115 116 112
0.121143 0.116297 0.636000 114 115 111
0.122354 0.116297 0.636000 114 115 111
0.123371 0.116114 0.635000 112 113 109
0.124581 0.116114 0.635000 115 116 112
0.125790 0.116114 0.635000 115 116 112
0.126600 0.115749 0.633000 114 115 111
0.127806 0.115749 0.633000 118 119 115
0.129011 0.115749 0.633000 117 118 114
0.130217 0.115749 0.633000 117 118 114
0.131423 0.115749 0.633000 118 119 115
0.132629 0.115749 0.633000 119 122 121
0.133834 0.115749 0.633000 120 123 122
0.135040 0.115749 0.633000 120 123 122
0.136246 0.115749 0.633000 119 122 121
0.137451 0.115749 0.633000 121 124 123
0.138657 0.115749 0.633000 121 124 123
0.139863 0.115749 0.633000 119 122 121
0.141069 0.115749 0.633000 122 125 124
0.142274 0.115749 0.633000 129 132 131
0.143480 0.115749 0.633000 130 133 132
0.144914 0.115931 0.634000 130 133 132
0.146122 0.115931 0.634000 131 134 133
0.147562 0.116114 0.635000 131 134 133
0.148771 0.116114 0.635000 131 134 133
0.149981 0.116114 0.635000 133 136 135
0.151190 0.116114 0.635000 133 136 135
0.152400 0.116114 0.635000 133 136 135
0.153851 0.116297 0.636000 131 134 133
0.155063 0.116297 0.636000 131 134 133
0.156274 0.116297 0.636000 131 134 133
0.157486 0.116297 0.636000 131 134 133
0.158697 0.116297 0.636000 131 134 133
0.159909 0.116297 0.636000 131 135 130
0.161120 0.116297 0.636000 130 134 129
0.162587 0.116480 0.637000 134 131 126
0.163800 0.116480 0.637000 117 114 109
0.165013 0.116480 0.637000 88 48 53
0.166227 0.116480 0.637000 97 57 62
0.167440 0.116480 0.637000 113 56 63
0.168918 0.116663 0.638000 111 54 61
0.088210 0.155570 0.842000 139 127 127
0.089813 0.155570 0.842000 143 129 123
0.091309 0.155385 0.841000 147 133 127
0.092800 0.155200 0.840000 144 131 118
0.094175 0.154830 0.838000 143 130 117
0.095657 0.154646 0.837000 141 121 111
0.097135 0.154461 0.836000 141 121 111
0.099200 0.155200 0.840000 145 121 107
0.100560 0.154830 0.838000 145 121 107
0.102034 0.154646 0.837000 145 120 102
0.104000 0.155200 0.840000 142 117 99
0.105349 0.154830 0.838000 140 112 95
0.091571 0.118432 0.641000 129 95 75
0.092648 0.118248 0.640000 130 94 73
0.093720 0.118063 0.639000 123 87 66
0.096126 0.119541 0.647000 120 75 62
0.097057 0.119171 0.645000 114 69 56
0.097981 0.118802 0.643000 110 64 56
0.099051 0.118617 0.642000 108 62 54
0.099962 0.118248 0.640000 105 55 50
0.101497 0.118617 0.642000 94 44 39
0.102560 0.118432 0.641000 91 31 27
0.103619 0.118248 0.640000 89 29 25
0.104674 0.118063 0.639000 94 29 27
0.105726 0.117878 0.638000 97 32 30
0.106773 0.117693 0.637000 89 39 36
0.107987 0.117693 0.637000 94 44 41
0.109029 0.117509 0.636000 123 107 102
0.110067 0.117324 0.635000 134 118 113
0.111276 0.117324 0.635000 124 125 114
0.112486 0.117324 0.635000 118 119 108
0.113695 0.117324 0.635000 112 114 105
0.114724 0.117139 0.634000 110 112 103
0.116663 0.117878 0.638000 111 112 108
0.117693 0.117693 0.637000 112 113 109
0.118907 0.117693 0.637000 115 116 112
0.120120 0.117693 0.637000 115 116 112
0.121333 0.117693 0.637000 114 115 111
0.122354 0.117509 0.636000 112 113 109
0.123371 0.117324 0.635000 112 113 109
0.124581 0.117324 0.635000 115 116 112
0.125790 0.117324 0.635000 115 116 112
0.126800 0.117139 0.634000 114 115 111
0.128008 0.117139 0.634000 116 117 113
0.129215 0.117139 0.634000 115 116 112
0.130217 0.116954 0.633000 115 116 112
0.131423 0.116954 0.633000 117 118 114
0.132629 0.116954 0.633000 119 122 121
0.133834 0.116954 0.633000 119 122 121
0.135040 0.116954 0.633000 117 120 119
0.136246 0.116954 0.633000 116 119 118
0.137451 0.116954 0.633000 119 122 121
0.138657 0.116954 0.633000 119 122 121
0.139863 0.116954 0.633000 117 120 119
0.141069 0.116954 0.633000 121 124 123
0.142274 0.116954 0.633000 128 131 130
0.143480 0.116954 0.633000 130 133 132
0.144914 0.117139 0.634000 130 133 132
0.146122 0.117139 0.634000 131 134 133
0.147330 0.117139 0.634000 131 134 133
0.148771 0.117324 0.635000 131 134 133
0.149981 0.117324 0.635000 133 136 135
0.151429 0.117509 0.636000 133 136 135
0.152640 0.117509 0.636000 133 136 135
0.153851 0.117509 0.636000 131 134 133
0.155063 0.117509 0.636000 133 136 135
0.156274 0.117509 0.636000 131 134 133
0.157486 0.117509 0.636000 131 134 133
0.158697 0.117509 0.636000 131 134 133
0.159909 0.117509 0.636000 131 135 130
0.161373 0.117693 0.637000 129 133 128
0.162587 0.117693 0.637000 140 135 131
0.163800 0.117693 0.637000 113 108 104
0.165013 0.117693 0.637000 91 48 54
0.166227 0.117693 0.637000 99 56 62
0.167440 0.117693 0.637000 114 57 64
0.168918 0.117878 0.638000 111 54 61
0.088000 0.156800 0.840000 138 126 126
0.089600 0.156800 0.840000 142 128 122
0.091091 0.156613 0.839000 147 133 127
0.092579 0.156427 0.838000 144 131 118
0.094063 0.156240 0.837000 143 130 117
0.095543 0.156053 0.836000 140 120 110
0.097019 0.155867 0.835000 140 120 110
0.098964 0.156427 0.838000 145 121 107
0.100320 0.156053 0.836000 144 120 106
0.101790 0.155867 0.835000 144 119 101
0.094095 0.141867 0.760000 142 117 99
0.095543 0.141867 0.760000 140 110 94
0.096990 0.141867 0.760000 135 105 89
0.090019 0.129733 0.695000 134 104 88
0.091211 0.129547 0.694000 132 102 86
0.090773 0.120213 0.644000 130 96 76
0.091714 0.119840 0.642000 129 95 75
0.092792 0.119653 0.641000 131 92 72
0.095333 0.121333 0.650000 124 85 65
0.096274 0.120960 0.648000 120 75 62
0.097208 0.120587 0.646000 113 68 55
0.098133 0.120213 0.644000 110 64 56
0.099360 0.120213 0.644000 108 62 54
0.100430 0.120027 0.643000 104 54 47
0.101497 0.119840 0.642000 93 43 36
0.102720 0.119840 0.642000 91 29 26
0.103781 0.119653 0.641000 91 29 26
0.104838 0.119467 0.640000 94 29 27
0.105891 0.119280 0.639000 97 32 30
0.106941 0.119093 0.638000 89 39 36
0.108156 0.119093 0.638000 94 44 41
0.109200 0.118907 0.637000 127 113 107
0.110240 0.118720 0.636000 133 119 113
0.111451 0.118720 0.636000 124 125 114
0.112663 0.118720 0.636000 117 118 107
0.113874 0.118720 0.636000 112 113 107
0.115629 0.119280 0.639000 111 112 106
0.116846 0.119280 0.639000 111 112 108
0.117509 0.118720 0.636000 112 113 109
0.119093 0.119093 0.638000 114 115 111
0.120309 0.119093 0.638000 115 116 112
0.121524 0.119093 0.638000 114 115 111
0.122547 0.118907 0.637000 112 113 109
0.123566 0.118720 0.636000 112 113 109
0.124777 0.118720 0.636000 115 116 112
0.125989 0.118720 0.636000 115 116 112
0.127000 0.118533 0.635000 115 116 112
0.128210 0.118533 0.635000 116 117 113
0.129215 0.118347 0.634000 115 116 112
0.130423 0.118347 0.634000 115 116 112
0.131630 0.118347 0.634000 116 117 113
0.132838 0.118347 0.634000 119 119 119
0.134046 0.118347 0.634000 119 119 119
0.135253 0.118347 0.634000 116 119 118
0.136461 0.118347 0.634000 116 119 118
0.137669 0.118347 0.634000 117 120 119
0.138876 0.118347 0.634000 117 120 119
0.140084 0.118347 0.634000 116 119 118
0.141291 0.118347 0.634000 120 123 122
0.142499 0.118347 0.634000 123 126 125
0.143707 0.118347 0.634000 129 132 131
0.144914 0.118347 0.634000 130 133 132
0.146122 0.118347 0.634000 131 134 133
0.147330 0.118347 0.634000 131 134 133
0.149006 0.118720 0.636000 133 136 135
0.150217 0.118720 0.636000 133 136 135
0.151429 0.118720 0.636000 133 136 135
0.152640 0.118720 0.636000 133 136 135
0.154093 0.118907 0.637000 133 136 135
0.155307 0.118907 0.637000 131 134 133
0.156520 0.118907 0.637000 131 134 133
0.157733 0.118907 0.637000 131 134 133
0.158947 0.118907 0.637000 126 129 128
0.160160 0.118907 0.637000 124 124 124
0.161373 0.118907 0.637000 124 124 124
0.162587 0.118907 0.637000 141 133 130
0.163800 0.118907 0.637000 111 103 100
0.165013 0.118907 0.637000 92 47 54
0.166227 0.118907 0.637000 100 55 62
0.167440 0.118907 0.637000 114 57 64
0.168918 0.119093 0.638000 111 54 61
0.087790 0.158023 0.838000 135 123 121
0.089280 0.157834 0.837000 142 128 122
0.090874 0.157834 0.837000 147 133 127
0.092358 0.157646 0.836000 144 131 118
0.093838 0.157457 0.835000 143 130 117
0.095314 0.157269 0.834000 140 120 110
0.097251 0.157834 0.837000 140 120 110
0.098610 0.157457 0.835000 145 119 106
0.100080 0.157269 0.834000 145 119 106
0.100693 0.155760 0.826000 143 118 100
0.093848 0.142937 0.758000 141 116 98
0.095291 0.142937 0.758000 139 109 93
0.096735 0.142937 0.758000 135 105 89
0.089630 0.130491 0.692000 135 102 87
0.090817 0.130303 0.691000 133 100 85
0.091867 0.129926 0.689000 133 100 85
0.090773 0.121440 0.644000 130 96 76
0.091857 0.121251 0.643000 129 95 75
0.092937 0.121063 0.642000 130 91 71
0.095480 0.122760 0.651000 124 85 65
0.096423 0.122383 0.649000 117 72 59
0.097358 0.122006 0.647000 113 68 55
0.098286 0.121629 0.645000 112 64 56
0.099360 0.121440 0.644000 109 61 53
0.100587 0.121440 0.644000 106 53 47
0.101655 0.121251 0.643000 95 42 36
0.102880 0.121251 0.643000 91 29 26
0.103781 0.120874 0.641000 90 28 25
0.105002 0.120874 0.641000 94 29 27
0.106057 0.120686 0.640000 97 32 30
0.107109 0.120497 0.639000 89 39 36
0.108156 0.120309 0.638000 94 44 41
0.109200 0.120120 0.637000 127 116 109
0.110240 0.119931 0.636000 131 120 113
0.111451 0.119931 0.636000 124 125 114
0.112663 0.119931 0.636000 117 118 107
0.113874 0.119931 0.636000 112 113 107
0.114905 0.119743 0.635000 111 112 106
0.116846 0.120497 0.639000 111 112 108
0.117878 0.120309 0.638000 112 113 109
0.119093 0.120309 0.638000 114 115 111
0.120309 0.120309 0.638000 115 116 112
0.121524 0.120309 0.638000 114 115 111
0.122547 0.120120 0.637000 114 115 111
0.123760 0.120120 0.637000 112 113 109
0.124777 0.119931 0.636000 114 115 111
0.125989 0.119931 0.636000 114 115 111
0.127000 0.119743 0.635000 115 116 112
0.128210 0.119743 0.635000 116 117 113
0.129419 0.119743 0.635000 115 116 112
0.130629 0.119743 0.635000 115 116 112
0.131838 0.119743 0.635000 116 117 113
0.133048 0.119743 0.635000 118 118 118
0.134257 0.119743 0.635000 119 119 119
0.135467 0.119743 0.635000 117 120 119
0.136676 0.119743 0.635000 116 119 118
0.137886 0.119743 0.635000 117 120 119
0.139095 0.119743 0.635000 119 122 121
0.140305 0.119743 0.635000 117 120 119
0.141514 0.119743 0.635000 119 122 121
0.142724 0.119743 0.635000 123 126 125
0.143933 0.119743 0.635000 129 132 131
0.145143 0.119743 0.635000 131 134 133
0.146352 0.119743 0.635000 131 134 133
0.147794 0.119931 0.636000 131 134 133
0.149006 0.119931 0.636000 133 136 135
0.150217 0.119931 0.636000 131 134 133
0.151429 0.119931 0.636000 133 136 135
0.152640 0.119931 0.636000 133 136 135
0.154093 0.120120 0.637000 133 136 135
0.155307 0.120120 0.637000 131 134 133
0.156520 0.120120 0.637000 131 134 133
0.157733 0.120120 0.637000 130 130 130
0.158947 0.120120 0.637000 115 115 115
0.160160 0.120120 0.637000 116 115 117
0.161373 0.120120 0.637000 119 118 120
0.162587 0.120120 0.637000 136 128 125
0.163800 0.120120 0.637000 104 96 93
0.165013 0.120120 0.637000 99 51 57
0.166488 0.120309 0.638000 101 53 59
0.167703 0.120309 0.638000 114 57 64
0.168918 0.120309 0.638000 110 53 60
0.087581 0.159238 0.836000 134 123 118
0.088960 0.158857 0.834000 141 127 119
0.090549 0.158857 0.834000 147 133 125
0.092027 0.158667 0.833000 144 131 118
0.093501 0.158476 0.832000 143 130 117
0.094971 0.158286 0.831000 139 119 109
0.096903 0.158857 0.834000 140 120 110
0.098255 0.158476 0.832000 145 119 106
0.098880 0.156952 0.824000 144 118 105
0.100206 0.156571 0.822000 145 117 100
0.093724 0.144190 0.757000 141 113 96
0.095166 0.144190 0.757000 140 107 92
0.096608 0.144190 0.757000 136 103 88
0.089242 0.131238 0.689000 134 101 86
0.090423 0.131048 0.688000 132 99 84
0.091600 0.130857 0.687000 133 100 85
0.090773 0.122667 0.644000 130 96 76
0.091857 0.122476 0.643000 129 95 75
0.092937 0.122286 0.642000 128 89 71
0.094013 0.122095 0.641000 123 84 66
0.096423 0.123619 0.649000 116 71 60
0.097358 0.123238 0.647000 112 67 56
0.098286 0.122857 0.645000 111 63 55
0.099360 0.122667 0.644000 109 61 53
0.100274 0.122286 0.642000 106 53 47
0.101971 0.122857 0.645000 95 42 36
0.102880 0.122476 0.643000 91 29 26
0.103943 0.122286 0.642000 91 29 26
0.105002 0.122095 0.641000 94 30 25
0.106223 0.122095 0.641000 97 33 28
0.107109 0.121714 0.639000 88 38 35
0.108156 0.121524 0.638000 98 48 45
0.109371 0.121524 0.638000 127 116 111
0.110413 0.121333 0.637000 131 120 115
0.111627 0.121333 0.637000 123 124 115
0.112663 0.121143 0.636000 117 118 109
0.113874 0.121143 0.636000 111 112 106
0.115086 0.121143 0.636000 111 112 106
0.116480 0.121333 0.637000 111 112 108
0.117509 0.121143 0.636000 112 113 109
0.118720 0.121143 0.636000 114 115 111
0.119931 0.121143 0.636000 115 116 112
0.121524 0.121524 0.638000 114 115 111
0.122739 0.121524 0.638000 112 113 109
0.123760 0.121333 0.637000 112 113 109
0.124973 0.121333 0.637000 112 113 109
0.126187 0.121333 0.637000 112 113 109
0.127200 0.121143 0.636000 115 116 112
0.128210 0.120952 0.635000 115 116 112
0.129419 0.120952 0.635000 114 115 111
0.130629 0.120952 0.635000 115 116 112
0.131838 0.120952 0.635000 116 117 113
0.133048 0.120952 0.635000 116 119 118
0.134257 0.120952 0.635000 117 120 119
0.135467 0.120952 0.635000 121 124 123
0.136676 0.120952 0.635000 120 123 122
0.137886 0.120952 0.635000 120 123 122
0.139095 0.120952 0.635000 122 125 124
0.140305 0.120952 0.635000 121 124 123
0.141514 0.120952 0.635000 121 124 123
0.142724 0.120952 0.635000 127 130 129
0.143933 0.120952 0.635000 130 133 132
0.145143 0.120952 0.635000 131 134 133
0.146352 0.120952 0.635000 131 134 133
0.147794 0.121143 0.636000 133 136 135
0.149006 0.121143 0.636000 133 136 135
0.150217 0.121143 0.636000 133 136 135
0.151667 0.121333 0.637000 133 136 135
0.152880 0.121333 0.637000 133 136 135
0.154093 0.121333 0.637000 133 136 135
0.155307 0.121333 0.637000 131 134 133
0.156520 0.121333 0.637000 130 133 132
0.157733 0.121333 0.637000 123 122 122
0.158947 0.121333 0.637000 113 112 112
0.160160 0.121333 0.637000 115 114 116
0.161373 0.121333 0.637000 117 116 118
0.162587 0.121333 0.637000 135 127 124
0.163800 0.121333 0.637000 101 93 90
0.165013 0.121333 0.637000 102 52 58
0.166488 0.121524 0.638000 104 54 60
0.167703 0.121524 0.638000 115 58 65
0.168918 0.121524 0.638000 111 54 61
0.087267 0.160253 0.833000 127 116 111
0.088640 0.159869 0.831000 140 127 116
0.090223 0.159869 0.831000 146 133 122
0.091695 0.159676 0.830000 144 131 118
0.093164 0.159484 0.829000 142 129 116
0.094629 0.159291 0.828000 139 119 109
0.095857 0.158714 0.825000 139 119 109
0.097074 0.158137 0.822000 145 119 106
0.098400 0.157752 0.820000 143 117 104
0.099718 0.157368 0.818000 142 116 101
0.093600 0.145440 0.756000 138 112 97
0.095040 0.145440 0.756000 139 106 91
0.096480 0.145440 0.756000 135 102 87
0.088853 0.131973 0.686000 133 100 85
0.090029 0.131781 0.685000 130 97 82
0.091200 0.131589 0.684000 135 100 85
0.090773 0.123893 0.644000 129 95 75
0.091857 0.123701 0.643000 128 94 74
0.092937 0.123509 0.642000 130 86 70
0.094013 0.123316 0.641000 123 79 63
0.096571 0.125048 0.650000 115 69 61
0.097509 0.124663 0.648000 110 64 56
0.098438 0.124278 0.646000 111 63 57
0.098434 0.122739 0.638000 108 60 54
0.101211 0.124663 0.648000 106 53 47
0.102130 0.124278 0.646000 95 42 36
0.103200 0.124086 0.645000 91 29 26
0.104105 0.123701 0.643000 91 29 26
0.105166 0.123509 0.642000 94 30 25
0.106223 0.123316 0.641000 98 34 29
0.107276 0.123124 0.640000 88 38 35
0.108326 0.122931 0.639000 100 50 47
0.109543 0.122931 0.639000 130 119 114
0.110587 0.122739 0.638000 130 119 114
0.111627 0.122547 0.637000 119 120 111
0.112840 0.122547 0.637000 113 114 105
0.114770 0.123316 0.641000 112 113 104
0.115810 0.123124 0.640000 112 113 104
0.116480 0.122547 0.637000 111 112 106
0.117693 0.122547 0.637000 112 113 107
0.118907 0.122547 0.637000 114 115 109
0.119931 0.122354 0.636000 114 115 109
0.121143 0.122354 0.636000 114 115 109
0.122931 0.122931 0.639000 112 113 107
0.123954 0.122739 0.638000 112 113 107
0.125170 0.122739 0.638000 112 113 107
0.126187 0.122547 0.637000 112 113 109
0.127400 0.122547 0.637000 112 113 109
0.128411 0.122354 0.636000 115 116 112
0.129623 0.122354 0.636000 114 115 111
0.130834 0.122354 0.636000 115 115 115
0.132046 0.122354 0.636000 116 116 116
0.133257 0.122354 0.636000 118 118 118
0.134469 0.122354 0.636000 122 122 122
0.135680 0.122354 0.636000 124 127 126
0.136891 0.122354 0.636000 124 127 126
0.138103 0.122354 0.636000 124 127 126
0.139314 0.122354 0.636000 127 130 129
0.140526 0.122354 0.636000 127 130 129
0.141737 0.122354 0.636000 128 131 130
0.142949 0.122354 0.636000 130 134 129
0.144160 0.122354 0.636000 131 135 130
0.145371 0.122354 0.636000 133 137 132
0.146583 0.122354 0.636000 133 137 132
0.148027 0.122547 0.637000 133 137 132
0.149240 0.122547 0.637000 133 137 132
0.150453 0.122547 0.637000 133 137 132
0.151667 0.122547 0.637000 133 137 132
0.152880 0.122547 0.637000 133 137 132
0.154093 0.122547 0.637000 131 135 130
0.155550 0.122739 0.638000 131 135 130
0.156766 0.122739 0.638000 128 132 127
0.157981 0.122739 0.638000 116 115 115
0.159196 0.122739 0.638000 111 110 110
0.160411 0.122739 0.638000 112 111 113
0.161627 0.122739 0.638000 116 115 117
0.162842 0.122739 0.638000 134 126 123
0.164057 0.122739 0.638000 97 89 86
0.165272 0.122739 0.638000 101 51 57
0.166749 0.122931 0.639000 104 54 60
0.167966 0.122931 0.639000 115 58 65
0.169183 0.122931 0.639000 112 55 62
0.086952 0.161257 0.830000 125 111 107
0.088320 0.160869 0.828000 141 126 116
0.089897 0.160869 0.828000 145 130 120
0.091364 0.160674 0.827000 144 130 115
0.092714 0.160286 0.825000 143 129 114
0.094171 0.160091 0.824000 137 120 106
0.095044 0.158926 0.818000 137 120 106
0.096602 0.158926 0.818000 144 120 106
0.097920 0.158537 0.816000 142 118 104
0.099230 0.158149 0.814000 141 115 100
0.088465 0.132697 0.683000 134 99 84
0.089766 0.132697 0.683000 131 96 81
0.090933 0.132503 0.682000 134 99 84
0.088594 0.125509 0.646000 131 96 79
0.089825 0.125509 0.646000 129 94 77
0.090914 0.125314 0.645000 130 94 75
0.092000 0.125120 0.644000 128 92 73
0.093082 0.124926 0.643000 128 84 68
0.094160 0.124731 0.642000 121 77 61
0.096720 0.126480 0.651000 114 68 60
0.097659 0.126091 0.649000 110 64 56
0.098590 0.125703 0.647000 110 62 54
0.099514 0.125314 0.645000 108 60 52
0.099650 0.123954 0.638000 107 54 48
0.102288 0.125703 0.647000 95 42 36
0.103360 0.125509 0.646000 91 29 26
0.104267 0.125120 0.644000 91 29 26
0.105166 0.124731 0.642000 96 32 27
0.106389 0.124731 0.642000 98 34 29
0.107276 0.124343 0.640000 88 37 37
0.108495 0.124343 0.640000 103 52 52
0.109543 0.124149 0.639000 132 121 116
0.110760 0.124149 0.639000 120 109 104
0.111802 0.123954 0.638000 111 109 101
0.113371 0.124343 0.640000 111 109 101
0.114949 0.124731 0.642000 111 112 103
0.115629 0.124149 0.639000 110 111 102
0.116663 0.123954 0.638000 109 110 104
0.117693 0.123760 0.637000 109 110 104
0.118907 0.123760 0.637000 110 111 105
0.119931 0.123566 0.636000 110 111 105
0.121143 0.123566 0.636000 111 112 106
0.122354 0.123566 0.636000 111 112 106
0.123954 0.123954 0.638000 111 112 106
0.125170 0.123954 0.638000 111 112 106
0.126385 0.123954 0.638000 110 111 107
0.127200 0.123566 0.636000 110 111 107
0.128411 0.123566 0.636000 116 117 113
0.129623 0.123566 0.636000 115 116 112
0.130834 0.123566 0.636000 115 115 115
0.132046 0.123566 0.636000 116 116 116
0.133257 0.123566 0.636000 118 118 118
0.134469 0.123566 0.636000 123 123 123
0.135680 0.123566 0.636000 127 131 126
0.136891 0.123566 0.636000 127 131 126
0.138103 0.123566 0.636000 127 131 126
0.139314 0.123566 0.636000 129 133 128
0.140526 0.123566 0.636000 129 133 128
0.141737 0.123566 0.636000 130 134 129
0.142949 0.123566 0.636000 130 134 129
0.144160 0.123566 0.636000 131 135 130
0.145600 0.123760 0.637000 133 137 132
0.146813 0.123760 0.637000 133 137 132
0.148027 0.123760 0.637000 133 137 132
0.149240 0.123760 0.637000 133 137 132
0.150453 0.123760 0.637000 133 137 132
0.151667 0.123760 0.637000 133 137 132
0.152880 0.123760 0.637000 133 137 132
0.154093 0.123760 0.637000 133 137 132
0.155550 0.123954 0.638000 130 133 132
0.156766 0.123954 0.638000 123 126 125
0.157981 0.123954 0.638000 116 115 117
0.159196 0.123954 0.638000 111 110 112
0.160411 0.123954 0.638000 111 110 112
0.161627 0.123954 0.638000 115 114 116
0.162842 0.123954 0.638000 132 124 121
0.164314 0.124149 0.639000 89 81 78
0.165531 0.124149 0.639000 102 50 55
0.166749 0.124149 0.639000 107 55 60
0.167966 0.124149 0.639000 114 59 67
0.169448 0.124343 0.640000 112 57 65
0.086638 0.162250 0.827000 125 111 105
0.088000 0.161857 0.825000 142 124 115
0.089571 0.161857 0.825000 146 128 119
0.090922 0.161465 0.823000 146 129 113
0.092265 0.161072 0.821000 145 128 112
0.093371 0.160288 0.817000 136 119 103
0.094695 0.159895 0.815000 136 119 103
0.096011 0.159503 0.813000 144 120 106
0.097200 0.158914 0.810000 142 118 104
0.098499 0.158522 0.808000 141 112 98
0.099543 0.157737 0.804000 137 108 94
0.088335 0.133802 0.682000 130 97 82
0.089634 0.133802 0.682000 129 96 81
0.090800 0.133606 0.681000 131 96 81
0.088594 0.126739 0.646000 130 95 78
0.089825 0.126739 0.646000 129 94 77
0.091055 0.126739 0.646000 129 93 74
0.092143 0.126543 0.645000 126 90 71
0.093227 0.126347 0.644000 126 81 68
0.094307 0.126150 0.643000 120 75 62
0.096869 0.127916 0.652000 113 67 59
0.097810 0.127524 0.650000 109 63 55
0.098743 0.127131 0.648000 109 61 53
0.099669 0.126739 0.646000 108 60 52
0.100587 0.126347 0.644000 106 53 47
0.102446 0.127131 0.648000 95 42 36
0.103520 0.126935 0.647000 91 29 26
0.104429 0.126543 0.645000 91 29 26
0.105493 0.126347 0.644000 97 31 27
0.106554 0.126150 0.643000 99 33 29
0.107444 0.125758 0.641000 88 37 37
0.108665 0.125758 0.641000 107 56 56
0.109714 0.125562 0.640000 123 112 107
0.110933 0.125562 0.640000 113 102 97
0.112328 0.125758 0.641000 107 105 97
0.113371 0.125562 0.640000 110 108 100
0.114590 0.125562 0.640000 110 111 102
0.115629 0.125366 0.639000 108 109 100
0.116846 0.125366 0.639000 108 109 103
0.117878 0.125170 0.638000 108 109 103
0.119093 0.125170 0.638000 108 109 103
0.120120 0.124973 0.637000 108 109 103
0.121333 0.124973 0.637000 108 112 107
0.122547 0.124973 0.637000 108 112 107
0.123760 0.124973 0.637000 109 113 108
0.124973 0.124973 0.637000 109 113 108
0.126187 0.124973 0.637000 108 112 107
0.127400 0.124973 0.637000 110 114 109
0.128613 0.124973 0.637000 114 118 113
0.129827 0.124973 0.637000 114 118 113
0.131040 0.124973 0.637000 118 118 118
0.132253 0.124973 0.637000 118 118 118
0.133467 0.124973 0.637000 119 122 121
0.134680 0.124973 0.637000 124 127 126
0.135893 0.124973 0.637000 129 133 128
0.137107 0.124973 0.637000 128 132 127
0.138320 0.124973 0.637000 129 133 128
0.139533 0.124973 0.637000 130 134 129
0.140747 0.124973 0.637000 130 134 129
0.141960 0.124973 0.637000 131 135 130
0.143173 0.124973 0.637000 131 135 130
0.144387 0.124973 0.637000 131 135 130
0.145600 0.124973 0.637000 133 137 132
0.146813 0.124973 0.637000 133 137 132
0.148259 0.125170 0.638000 133 137 132
0.149474 0.125170 0.638000 133 137 132
0.150690 0.125170 0.638000 133 137 132
0.151905 0.125170 0.638000 134 138 133
0.153120 0.125170 0.638000 134 138 133
0.154335 0.125170 0.638000 133 137 132
0.155794 0.125366 0.639000 129 132 131
0.157011 0.125366 0.639000 120 123 122
0.158229 0.125366 0.639000 115 114 116
0.159446 0.125366 0.639000 110 109 111
0.160663 0.125366 0.639000 111 110 112
0.161880 0.125366 0.639000 115 114 116
0.163097 0.125366 0.639000 131 121 119
0.164571 0.125562 0.640000 87 77 75
0.165790 0.125562 0.640000 101 49 54
0.167010 0.125562 0.640000 107 55 60
0.168229 0.125562 0.640000 115 60 68
0.169712 0.125758 0.641000 114 59 67
0.086324 0.163230 0.824000 133 119 111
0.087680 0.162834 0.822000 137 119 110
0.089137 0.162636 0.821000 142 124 115
0.090480 0.162240 0.819000 143 126 110
0.091928 0.162042 0.818000 143 126 110
0.092914 0.161051 0.813000 134 115 100
0.094114 0.160457 0.810000 136 117 102
0.095421 0.160061 0.808000 144 118 103
0.096600 0.159467 0.805000 142 116 101
0.097890 0.159070 0.803000 141 113 96
0.099790 0.159665 0.806000 136 108 91
0.099440 0.156693 0.791000 135 101 89
0.088594 0.127970 0.646000 130 95 78
0.089825 0.127970 0.646000 129 94 77
0.091055 0.127970 0.646000 130 91 73
0.092143 0.127771 0.645000 127 88 70
0.093227 0.127573 0.644000 124 79 66
0.094307 0.127375 0.643000 116 71 58
0.096869 0.129158 0.652000 112 66 58
0.097810 0.128762 0.650000 109 63 55
0.098743 0.128366 0.648000 109 61 53
0.099669 0.127970 0.646000 107 59 51
0.100743 0.127771 0.645000 106 54 45
0.101497 0.127177 0.642000 95 43 34
0.102560 0.126979 0.641000 91 29 26
0.104590 0.127970 0.646000 90 28 25
0.105657 0.127771 0.645000 97 31 27
0.106720 0.127573 0.644000 99 33 29
0.107611 0.127177 0.642000 88 37 37
0.108665 0.126979 0.641000 110 59 59
0.109886 0.126979 0.641000 118 107 100
0.110933 0.126781 0.640000 111 100 93
0.112328 0.126979 0.641000 106 104 96
0.113371 0.126781 0.640000 111 109 101
0.114590 0.126781 0.640000 109 110 101
0.115629 0.126583 0.639000 106 107 98
0.116846 0.126583 0.639000 107 108 102
0.117878 0.126385 0.638000 107 108 102
0.119093 0.126385 0.638000 108 109 105
0.120120 0.126187 0.637000 108 109 105
0.121333 0.126187 0.637000 108 112 107
0.122547 0.126187 0.637000 110 114 109
0.123760 0.126187 0.637000 109 113 108
0.124973 0.126187 0.637000 109 113 108
0.126187 0.126187 0.637000 109 113 108
0.127400 0.126187 0.637000 112 116 111
0.128613 0.126187 0.637000 115 119 114
0.129827 0.126187 0.637000 115 119 114
0.131040 0.126187 0.637000 119 120 116
0.132253 0.126187 0.637000 123 124 120
0.133467 0.126187 0.637000 124 128 123
0.134680 0.126187 0.637000 127 131 126
0.135893 0.126187 0.637000 127 134 128
0.137107 0.126187 0.637000 127 134 128
0.138320 0.126187 0.637000 128 135 129
0.139533 0.126187 0.637000 128 135 129
0.140747 0.126187 0.637000 128 135 129
0.141960 0.126187 0.637000 129 136 130
0.143173 0.126187 0.637000 129 136 130
0.144387 0.126187 0.637000 129 136 130
0.145600 0.126187 0.637000 131 138 132
0.146813 0.126187 0.637000 131 138 132
0.148027 0.126187 0.637000 131 138 132
0.149709 0.126583 0.639000 131 138 132
0.150926 0.126583 0.639000 131 138 132
0.152143 0.126583 0.639000 132 139 133
0.153360 0.126583 0.639000 132 139 133
0.154577 0.126583 0.639000 132 139 133
0.155794 0.126583 0.639000 129 132 131
0.157011 0.126583 0.639000 122 125 124
0.158476 0.126781 0.640000 115 115 117
0.159695 0.126781 0.640000 109 109 111
0.160914 0.126781 0.640000 111 110 112
0.162133 0.126781 0.640000 116 115 117
0.163352 0.126781 0.640000 132 120 118
0.164829 0.126979 0.641000 85 73 71
0.166050 0.126979 0.641000 101 49 54
0.167270 0.126979 0.641000 107 55 60
0.168491 0.126979 0.641000 115 60 70
0.169977 0.127177 0.642000 118 63 73
0.086010 0.164200 0.821000 132 114 105
0.087360 0.163800 0.819000 131 111 103
0.088703 0.163400 0.817000 137 117 109
0.090149 0.163200 0.816000 140 121 106
0.091141 0.162200 0.811000 141 122 107
0.092457 0.161800 0.809000 134 113 98
0.093650 0.161200 0.806000 134 113 98
0.094830 0.160600 0.803000 144 115 101
0.096120 0.160200 0.801000 143 114 100
0.097280 0.159600 0.798000 142 109 94
0.098429 0.159000 0.795000 137 104 89
0.099189 0.157800 0.789000 136 101 86
0.091055 0.129200 0.646000 130 91 73
0.092143 0.129000 0.645000 126 87 69
0.093227 0.128800 0.644000 125 78 65
0.094307 0.128600 0.643000 117 70 57
0.095383 0.128400 0.642000 112 64 56
0.096455 0.128200 0.641000 110 62 54
0.098743 0.129600 0.648000 108 60 52
0.099823 0.129400 0.647000 107 59 51
0.100743 0.129000 0.645000 106 54 45
0.101655 0.128600 0.643000 95 43 34
0.102720 0.128400 0.642000 91 29 26
0.104752 0.129400 0.647000 91 29 26
0.105657 0.129000 0.645000 97 31 27
0.106720 0.128800 0.644000 99 33 29
0.107779 0.128600 0.643000 88 37 37
0.108834 0.128400 0.642000 111 60 60
0.110057 0.128400 0.642000 119 108 101
0.111107 0.128200 0.641000 111 100 93
0.112503 0.128400 0.642000 104 105 96
0.113549 0.128200 0.641000 108 109 100
0.114770 0.128200 0.641000 106 107 98
0.115810 0.128000 0.640000 104 105 96
0.117029 0.128000 0.640000 107 108 104
0.118063 0.127800 0.639000 107 108 104
0.119280 0.127800 0.639000 107 108 104
0.120309 0.127600 0.638000 108 109 105
0.121524 0.127600 0.638000 112 116 111
0.122739 0.127600 0.638000 112 116 111
0.123954 0.127600 0.638000 110 114 109
0.125170 0.127600 0.638000 109 113 108
0.126385 0.127600 0.638000 110 114 109
0.127600 0.127600 0.638000 113 117 112
0.128815 0.127600 0.638000 115 119 114
0.130030 0.127600 0.638000 115 119 114
0.131246 0.127600 0.638000 119 123 118
0.132461 0.127600 0.638000 122 126 121
0.133676 0.127600 0.638000 124 128 123
0.134891 0.127600 0.638000 128 132 127
0.136107 0.127600 0.638000 129 133 128
0.137322 0.127600 0.638000 128 132 127
0.138537 0.127600 0.638000 128 132 127
0.139752 0.127600 0.638000 129 133 128
0.140968 0.127600 0.638000 130 134 129
0.142183 0.127600 0.638000 130 134 129
0.143398 0.127600 0.638000 129 133 128
0.144613 0.127600 0.638000 129 133 128
0.145829 0.127600 0.638000 131 138 132
0.147044 0.127600 0.638000 131 138 132
0.148491 0.127800 0.639000 131 138 132
0.149709 0.127800 0.639000 131 138 132
0.150926 0.127800 0.639000 131 138 132
0.152381 0.128000 0.640000 132 139 133
0.153600 0.128000 0.640000 132 139 133
0.154819 0.128000 0.640000 132 139 133
0.156038 0.128000 0.640000 128 135 129
0.157257 0.128000 0.640000 124 131 125
0.158724 0.128200 0.641000 115 115 115
0.159945 0.128200 0.641000 109 109 109
0.161166 0.128200 0.641000 113 112 114
0.162387 0.128200 0.641000 117 116 118
0.163608 0.128200 0.641000 133 121 119
0.164829 0.128200 0.641000 81 69 67
0.166309 0.128400 0.642000 102 50 55
0.167531 0.128400 0.642000 107 55 60
0.168754 0.128400 0.642000 115 63 72
0.169977 0.128400 0.642000 117 65 74
0.087040 0.164754 0.816000 127 105 95
0.087943 0.163543 0.810000 129 107 97
0.089265 0.163139 0.808000 139 118 101
0.090691 0.162937 0.807000 140 119 102
0.091886 0.162331 0.804000 135 109 94
0.093069 0.161726 0.801000 134 108 93
0.094358 0.161322 0.799000 142 111 98
0.095520 0.160716 0.796000 142 111 98
0.096792 0.160312 0.794000 142 107 92
0.097933 0.159707 0.791000 137 102 87
0.098811 0.158697 0.786000 135 100 85
0.099415 0.157284 0.779000 134 99 84
0.100510 0.156678 0.776000 131 94 80
0.091055 0.130430 0.646000 130 91 73
0.092143 0.130229 0.645000 125 86 68
0.093227 0.130027 0.644000 122 75 62
0.094307 0.129825 0.643000 115 68 55
0.095383 0.129623 0.642000 112 64 56
0.096455 0.129421 0.641000 110 62 54
0.098743 0.130834 0.648000 108 61 50
0.099823 0.130632 0.647000 107 60 49
0.100899 0.130430 0.646000 105 53 44
0.101813 0.130027 0.644000 95 43 34
0.102880 0.129825 0.643000 91 30 24
0.103943 0.129623 0.642000 92 31 25
0.105821 0.130430 0.646000 97 31 27
0.106886 0.130229 0.645000 99 33 29
0.107947 0.130027 0.644000 89 38 38
0.109004 0.129825 0.643000 116 65 65
0.110229 0.129825 0.643000 116 107 100
0.111973 0.130430 0.646000 109 100 93
0.112678 0.129825 0.643000 105 106 97
0.113726 0.129623 0.642000 108 109 100
0.114949 0.129623 0.642000 105 106 97
0.115990 0.129421 0.641000 104 105 96
0.117029 0.129219 0.640000 107 108 104
0.118248 0.129219 0.640000 107 108 104
0.119280 0.129017 0.639000 105 106 102
0.120497 0.129017 0.639000 107 108 104
0.121714 0.129017 0.639000 112 115 114
0.122931 0.129017 0.639000 113 116 115
0.124149 0.129017 0.639000 110 114 109
0.125170 0.128815 0.638000 109 113 108
0.126385 0.128815 0.638000 112 116 111
0.127800 0.129017 0.639000 113 117 112
0.129017 0.129017 0.639000 114 115 111
0.130234 0.129017 0.639000 114 115 111
0.131451 0.129017 0.639000 119 120 116
0.132669 0.129017 0.639000 119 120 116
0.133886 0.129017 0.639000 119 119 119
0.135103 0.129017 0.639000 121 121 121
0.136320 0.129017 0.639000 117 120 119
0.137322 0.128815 0.638000 119 122 121
0.138537 0.128815 0.638000 119 122 123
0.139752 0.128815 0.638000 124 127 128
0.140968 0.128815 0.638000 128 131 132
0.142183 0.128815 0.638000 124 127 128
0.143398 0.128815 0.638000 124 127 128
0.144613 0.128815 0.638000 126 129 130
0.145829 0.128815 0.638000 133 136 135
0.147044 0.128815 0.638000 133 136 135
0.148724 0.129219 0.640000 131 137 135
0.149943 0.129219 0.640000 131 137 135
0.151162 0.129219 0.640000 131 137 135
0.152381 0.129219 0.640000 132 138 136
0.153360 0.129017 0.639000 132 138 136
0.155061 0.129421 0.641000 132 138 136
0.156282 0.129421 0.641000 129 136 130
0.157503 0.129421 0.641000 125 132 126
0.158724 0.129421 0.641000 115 115 115
0.160194 0.129623 0.642000 110 110 110
0.161417 0.129623 0.642000 113 112 114
0.162640 0.129623 0.642000 117 116 118
0.163863 0.129623 0.642000 135 120 121
0.165086 0.129623 0.642000 80 65 66
0.166568 0.129825 0.643000 102 50 57
0.167792 0.129825 0.643000 107 55 62
0.169017 0.129825 0.643000 112 60 69
0.086293 0.164882 0.809000 127 103 91
0.087617 0.164474 0.807000 126 102 90
0.088933 0.164067 0.805000 135 111 95
0.090242 0.163659 0.803000 140 116 100
0.091543 0.163251 0.801000 131 106 88
0.092604 0.162436 0.797000 132 107 89
0.093886 0.162029 0.795000 141 107 95
0.095040 0.161417 0.792000 143 109 97
0.097280 0.162640 0.798000 140 103 87
0.098305 0.161825 0.794000 137 100 84
0.098560 0.159787 0.784000 135 98 84
0.099032 0.158156 0.776000 133 96 82
0.099992 0.157341 0.772000 132 92 79
0.099623 0.154488 0.758000 130 90 77
0.100667 0.153876 0.755000 128 91 75
0.101834 0.153469 0.753000 129 92 76
0.091055 0.131661 0.646000 128 89 71
0.092143 0.131457 0.645000 123 84 66
0.093227 0.131253 0.644000 117 72 59
0.094453 0.131253 0.644000 113 68 55
0.095531 0.131050 0.643000 111 63 55
0.096606 0.130846 0.642000 109 61 53
0.098895 0.132272 0.649000 108 60 52
0.099977 0.132069 0.648000 106 58 50
0.100899 0.131661 0.646000 105 53 44
0.101971 0.131457 0.645000 93 41 32
0.103040 0.131253 0.644000 92 31 25
0.104105 0.131050 0.643000 94 33 27
0.105985 0.131865 0.647000 98 32 28
0.107051 0.131661 0.646000 99 33 29
0.108114 0.131457 0.645000 89 40 39
0.109173 0.131253 0.644000 121 72 71
0.109714 0.130438 0.640000 118 109 102
0.111973 0.131661 0.646000 109 100 93
0.112678 0.131050 0.643000 104 105 96
0.113903 0.131050 0.643000 108 109 100
0.114949 0.130846 0.642000 104 105 96
0.115990 0.130642 0.641000 105 106 97
0.117029 0.130438 0.640000 105 106 102
0.118248 0.130438 0.640000 107 108 104
0.119280 0.130234 0.639000 107 108 104
0.120497 0.130234 0.639000 107 108 104
0.121714 0.130234 0.639000 112 113 109
0.122931 0.130234 0.639000 111 112 108
0.124149 0.130234 0.639000 110 110 110
0.125170 0.130030 0.638000 110 110 110
0.126385 0.130030 0.638000 110 110 110
0.127600 0.130030 0.638000 111 111 111
0.128815 0.130030 0.638000 110 110 110
0.130234 0.130234 0.639000 111 111 111
0.131451 0.130234 0.639000 112 112 112
0.132669 0.130234 0.639000 112 112 112
0.133886 0.130234 0.639000 116 116 116
0.135103 0.130234 0.639000 117 117 117
0.136320 0.130234 0.639000 113 116 117
0.137537 0.130234 0.639000 115 118 119
0.138754 0.130234 0.639000 116 119 120
0.139971 0.130234 0.639000 126 129 130
0.141189 0.130234 0.639000 126 129 130
0.142406 0.130234 0.639000 123 126 127
0.143623 0.130234 0.639000 122 125 126
0.144840 0.130234 0.639000 124 127 128
0.146057 0.130234 0.639000 131 134 135
0.147505 0.130438 0.640000 133 136 137
0.148491 0.130234 0.639000 133 136 135
0.150177 0.130642 0.641000 133 136 135
0.151398 0.130642 0.641000 131 137 135
0.152381 0.130438 0.640000 132 138 136
0.153600 0.130438 0.640000 132 138 136
0.155061 0.130642 0.641000 132 138 136
0.156526 0.130846 0.642000 131 137 135
0.157749 0.130846 0.642000 126 132 130
0.158971 0.130846 0.642000 113 116 115
0.160444 0.131050 0.643000 109 112 111
0.161669 0.131050 0.643000 112 112 112
0.162893 0.131050 0.643000 117 117 117
0.164118 0.131050 0.643000 129 112 112
0.165343 0.131050 0.643000 76 59 59
0.166827 0.131253 0.644000 103 48 56
0.167792 0.131050 0.643000 107 52 60
0.169543 0.131457 0.645000 110 58 67
0.085973 0.165806 0.806000 126 102 90
0.087291 0.165394 0.804000 122 98 86
0.088602 0.164983 0.802000 130 105 87
0.089905 0.164571 0.800000 139 114 96
0.091200 0.164160 0.798000 132 102 84
0.092255 0.163337 0.794000 132 102 84
0.093413 0.162720 0.791000 139 106 91
0.094680 0.162309 0.789000 142 109 94
0.098522 0.158811 0.772000 134 94 79
0.098568 0.156549 0.761000 132 92 77
0.099360 0.155520 0.756000 130 90 75
0.100667 0.155314 0.755000 128 88 73
0.101699 0.154697 0.752000 130 90 75
0.102171 0.153257 0.745000 131 91 76
0.102200 0.151200 0.735000 128 88 73
0.091055 0.132891 0.646000 127 88 70
0.092143 0.132686 0.645000 121 82 64
0.093371 0.132686 0.645000 113 71 59
0.094600 0.132686 0.645000 110 68 56
0.095680 0.132480 0.644000 109 63 55
0.096756 0.132274 0.643000 107 61 53
0.099048 0.133714 0.650000 107 59 51
0.100131 0.133509 0.649000 106 58 50
0.101055 0.133097 0.647000 104 52 43
0.102130 0.132891 0.646000 93 41 32
0.103200 0.132686 0.645000 92 31 25
0.104267 0.132480 0.644000 94 33 27
0.105985 0.133097 0.647000 98 32 28
0.107051 0.132891 0.646000 99 33 29
0.108282 0.132891 0.646000 87 40 41
0.109343 0.132686 0.645000 123 76 77
0.109886 0.131863 0.641000 122 113 106
0.112147 0.133097 0.647000 111 102 95
0.113379 0.133097 0.647000 106 107 98
0.114080 0.132480 0.644000 106 107 98
0.115486 0.132686 0.645000 104 104 98
0.116171 0.132069 0.642000 105 105 99
0.117211 0.131863 0.641000 105 106 102
0.118432 0.131863 0.641000 110 111 107
0.119467 0.131657 0.640000 107 108 104
0.120686 0.131657 0.640000 108 109 105
0.121905 0.131657 0.640000 111 112 108
0.123124 0.131657 0.640000 110 111 107
0.124149 0.131451 0.639000 109 109 109
0.125366 0.131451 0.639000 109 109 109
0.126583 0.131451 0.639000 109 109 109
0.127800 0.131451 0.639000 110 110 110
0.128815 0.131246 0.638000 110 110 110
0.130030 0.131246 0.638000 111 111 111
0.131657 0.131657 0.640000 111 111 111
0.132876 0.131657 0.640000 111 111 111
0.133886 0.131451 0.639000 115 115 115
0.135103 0.131451 0.639000 117 117 117
0.136320 0.131451 0.639000 116 119 120
0.137537 0.131451 0.639000 119 122 123
0.138754 0.131451 0.639000 120 123 124
0.139971 0.131451 0.639000 128 131 132
0.141189 0.131451 0.639000 128 131 132
0.142406 0.131451 0.639000 127 130 131
0.143623 0.131451 0.639000 123 126 127
0.144840 0.131451 0.639000 127 130 131
0.146057 0.131451 0.639000 131 134 135
0.147274 0.131451 0.639000 133 136 137
0.148724 0.131657 0.640000 133 136 135
0.149709 0.131451 0.639000 133 136 135
0.151398 0.131863 0.641000 131 137 135
0.152381 0.131657 0.640000 132 138 136
0.153840 0.131863 0.641000 133 139 137
0.155061 0.131863 0.641000 132 138 136
0.156526 0.132069 0.642000 131 137 135
0.157749 0.132069 0.642000 126 132 130
0.158971 0.132069 0.642000 114 117 118
0.160194 0.132069 0.642000 113 116 117
0.161417 0.132069 0.642000 115 116 112
0.162640 0.132069 0.642000 122 123 119
0.163863 0.132069 0.642000 128 109 107
0.165086 0.132069 0.642000 76 57 55
0.166568 0.132274 0.643000 104 49 55
0.168053 0.132480 0.644000 107 52 58
0.169280 0.132480 0.644000 108 56 65
0.085653 0.166718 0.803000 126 102 90
0.086966 0.166303 0.801000 121 97 85
0.088270 0.165888 0.799000 126 98 81
0.089455 0.165265 0.796000 134 106 89
0.090743 0.164850 0.794000 130 100 82
0.091790 0.164019 0.790000 130 100 82
0.093059 0.163604 0.788000 139 102 86
0.094200 0.162981 0.785000 143 106 90
0.094720 0.161320 0.777000 138 102 83
0.095829 0.160697 0.774000 135 99 80
0.096926 0.160074 0.771000 131 95 76
0.097373 0.158413 0.763000 131 95 76
0.098309 0.157583 0.759000 132 92 77
0.099229 0.156752 0.755000 130 90 75
0.100400 0.156337 0.753000 128 88 73
0.101564 0.155922 0.751000 128 88 73
0.102034 0.154469 0.744000 128 88 73
0.103034 0.153846 0.741000 126 86 71
0.091055 0.134122 0.646000 125 86 68
0.092286 0.134122 0.646000 120 81 63
0.093516 0.134122 0.646000 112 70 58
0.094747 0.134122 0.646000 107 65 53
0.095829 0.133914 0.645000 106 63 54
0.096907 0.133707 0.644000 105 62 53
0.099048 0.134952 0.650000 107 59 51
0.100131 0.134745 0.649000 104 56 48
0.101211 0.134537 0.648000 105 51 43
0.102288 0.134330 0.647000 93 39 31
0.103360 0.134122 0.646000 92 31 25
0.104429 0.133914 0.645000 92 31 25
0.106149 0.134537 0.648000 98 32 28
0.107217 0.134330 0.647000 99 33 29
0.107779 0.133499 0.643000 88 40 44
0.108834 0.133291 0.642000 126 78 82
0.111257 0.134745 0.649000 127 120 114
0.112320 0.134537 0.648000 116 109 103
0.113554 0.134537 0.648000 110 110 104
0.114611 0.134330 0.647000 108 108 102
0.115665 0.134122 0.646000 104 105 99
0.116895 0.134122 0.646000 104 105 99
0.117943 0.133914 0.645000 108 109 105
0.118617 0.133291 0.642000 111 112 108
0.119653 0.133084 0.641000 108 109 105
0.120874 0.133084 0.641000 110 111 107
0.122095 0.133084 0.641000 111 112 108
0.123316 0.133084 0.641000 110 111 107
0.124343 0.132876 0.640000 109 110 106
0.125562 0.132876 0.640000 110 111 107
0.126781 0.132876 0.640000 110 111 107
0.128000 0.132876 0.640000 112 113 109
0.129017 0.132669 0.639000 115 115 115
0.130642 0.133084 0.641000 116 116 116
0.131863 0.133084 0.641000 116 116 116
0.132876 0.132876 0.640000 115 115 115
0.134095 0.132876 0.640000 118 118 118
0.135314 0.132876 0.640000 124 124 124
0.136533 0.132876 0.640000 129 129 129
0.137752 0.132876 0.640000 128 128 128
0.138971 0.132876 0.640000 127 130 129
0.140190 0.132876 0.640000 129 132 131
0.141410 0.132876 0.640000 129 132 131
0.142629 0.132876 0.640000 129 132 131
0.143848 0.132876 0.640000 130 133 132
0.145067 0.132876 0.640000 130 133 132
0.146286 0.132876 0.640000 131 137 135
0.147505 0.132876 0.640000 131 137 135
0.148724 0.132876 0.640000 131 137 135
0.149943 0.132876 0.640000 132 138 136
0.151634 0.133291 0.642000 131 137 135
0.152619 0.133084 0.641000 132 138 136
0.154080 0.133291 0.642000 133 139 137
0.155303 0.133291 0.642000 133 139 137
0.156770 0.133499 0.643000 132 138 136
0.157994 0.133499 0.643000 126 132 130
0.159219 0.133499 0.643000 121 127 127
0.160194 0.133291 0.642000 124 130 130
0.161417 0.133291 0.642000 121 128 122
0.162893 0.133499 0.643000 128 135 129
0.164118 0.133499 0.643000 123 104 102
0.165343 0.133499 0.643000 76 57 55
0.166827 0.133707 0.644000 105 48 55
0.168314 0.133914 0.645000 110 53 60
0.169543 0.133914 0.645000 109 57 66
0.086749 0.167410 0.799000 122 96 83
0.087939 0.166781 0.796000 124 95 81
0.089118 0.166152 0.793000 130 101 87
0.090400 0.165733 0.791000 125 97 80
0.091442 0.164895 0.787000 125 97 80
0.092705 0.164476 0.785000 137 101 82
0.093720 0.163638 0.781000 142 106 87
0.094598 0.162590 0.776000 139 100 82
0.095581 0.161752 0.772000 135 96 78
0.096674 0.161124 0.769000 132 93 75
0.097884 0.160705 0.767000 133 94 76
0.099604 0.161124 0.769000 132 93 75
0.100543 0.160286 0.765000 130 91 73
0.100800 0.158400 0.756000 127 88 70
0.101429 0.157143 0.750000 127 88 70
0.102034 0.155886 0.744000 125 86 68
0.102895 0.155048 0.740000 123 84 66
0.091196 0.135562 0.647000 124 85 67
0.092429 0.135562 0.647000 118 79 61
0.093661 0.135562 0.647000 110 68 56
0.094893 0.135562 0.647000 107 65 53
0.095977 0.135352 0.646000 105 62 53
0.097057 0.135143 0.645000 104 61 52
0.098286 0.135143 0.645000 107 59 51
0.100131 0.135981 0.649000 104 56 48
0.101211 0.135771 0.648000 104 50 42
0.102288 0.135562 0.647000 93 39 31
0.103520 0.135562 0.647000 94 30 25
0.104590 0.135352 0.646000 94 30 25
0.105657 0.135143 0.645000 98 32 28
0.106886 0.135143 0.645000 100 34 30
0.108617 0.135771 0.648000 85 37 41
0.109004 0.134724 0.643000 131 83 87
0.111429 0.136190 0.650000 129 122 116
0.112320 0.135771 0.648000 124 117 111
0.113554 0.135771 0.648000 115 116 110
0.114611 0.135562 0.647000 111 112 106
0.115844 0.135562 0.647000 108 109 103
0.116895 0.135352 0.646000 108 109 103
0.117943 0.135143 0.645000 110 111 107
0.118617 0.134514 0.642000 112 113 109
0.119653 0.134305 0.641000 110 111 107
0.120874 0.134305 0.641000 114 115 111
0.122095 0.134305 0.641000 114 115 111
0.123316 0.134305 0.641000 115 116 112
0.124343 0.134095 0.640000 114 115 111
0.125562 0.134095 0.640000 114 115 111
0.126781 0.134095 0.640000 114 115 111
0.128000 0.134095 0.640000 115 116 112
0.129421 0.134305 0.641000 122 123 119
0.130642 0.134305 0.641000 119 120 116
0.131863 0.134305 0.641000 119 119 119
0.132876 0.134095 0.640000 118 118 118
0.134095 0.134095 0.640000 121 121 121
0.135314 0.134095 0.640000 130 130 130
0.136533 0.134095 0.640000 131 131 131
0.137752 0.134095 0.640000 132 132 132
0.138971 0.134095 0.640000 132 132 132
0.140190 0.134095 0.640000 133 133 133
0.141410 0.134095 0.640000 133 133 133
0.142629 0.134095 0.640000 135 135 135
0.143848 0.134095 0.640000 133 133 133
0.145067 0.134095 0.640000 133 133 133
0.146286 0.134095 0.640000 131 137 135
0.147505 0.134095 0.640000 131 137 135
0.148724 0.134095 0.640000 131 137 135
0.149943 0.134095 0.640000 132 138 136
0.151634 0.134514 0.642000 132 138 136
0.152619 0.134305 0.641000 133 139 137
0.153840 0.134305 0.641000 133 139 137
0.155303 0.134514 0.642000 132 138 136
0.156526 0.134514 0.642000 132 138 136
0.157994 0.134724 0.643000 129 135 133
0.159219 0.134724 0.643000 127 133 131
0.160444 0.134724 0.643000 127 133 131
0.161669 0.134724 0.643000 128 131 130
0.162893 0.134724 0.643000 133 136 135
0.164373 0.134933 0.644000 117 96 95
0.165600 0.134933 0.644000 79 58 57
0.167086 0.135143 0.645000 105 48 55
0.168575 0.135352 0.646000 110 53 60
0.170069 0.135562 0.647000 108 56 65
0.086423 0.168297 0.796000 121 95 82
0.087608 0.167663 0.793000 123 95 78
0.088893 0.167240 0.791000 126 98 81
0.090171 0.166817 0.789000 124 96 79
0.091326 0.166183 0.786000 123 95 78
0.092587 0.165760 0.784000 135 96 78
0.093480 0.164703 0.779000 140 101 83
0.094354 0.163646 0.774000 138 99 79
0.095457 0.163011 0.771000 134 95 75
0.096423 0.162166 0.767000 131 92 72
0.097629 0.161743 0.765000 133 94 74
0.099345 0.162166 0.767000 132 93 73
0.100411 0.161531 0.764000 130 91 71
0.100933 0.160051 0.757000 127 88 68
0.102105 0.159629 0.755000 124 85 65
0.101897 0.157091 0.743000 120 81 63
0.102895 0.156457 0.740000 120 81 63
0.091337 0.137006 0.648000 121 82 64
0.092571 0.137006 0.648000 116 77 59
0.093806 0.137006 0.648000 107 67 54
0.095040 0.137006 0.648000 105 65 52
0.096126 0.136794 0.647000 104 61 52
0.097208 0.136583 0.646000 104 61 52
0.098438 0.136583 0.646000 106 58 50
0.099669 0.136583 0.646000 104 56 48
0.100899 0.136583 0.646000 104 50 42
0.102446 0.137006 0.648000 93 39 31
0.103680 0.137006 0.648000 94 30 25
0.104752 0.136794 0.647000 94 30 25
0.105821 0.136583 0.646000 98 32 28
0.107051 0.136583 0.646000 100 34 30
0.108785 0.137217 0.649000 83 38 41
0.109173 0.136160 0.644000 133 88 91
0.111600 0.137640 0.651000 132 125 117
0.112493 0.137217 0.649000 129 122 114
0.113730 0.137217 0.649000 117 118 112
0.114789 0.137006 0.648000 114 115 109
0.116023 0.137006 0.648000 110 111 107
0.116895 0.136583 0.646000 110 111 107
0.118126 0.136583 0.646000 111 112 108
0.118802 0.135949 0.643000 112 113 109
0.119840 0.135737 0.642000 112 113 109
0.121063 0.135737 0.642000 116 117 113
0.122286 0.135737 0.642000 117 118 114
0.123509 0.135737 0.642000 117 118 114
0.124537 0.135526 0.641000 116 117 113
0.125758 0.135526 0.641000 115 116 112
0.126979 0.135526 0.641000 113 117 112
