ply
format ascii 1.0
element vertex 1188
property float x
property float y
property float z
property uchar red
property uchar green
property uchar blue
end_header
-0.144032 -0.324138 -0.554285 107 68 75
-0.145003 -0.324205 -0.554370 105 62 68
-0.145975 -0.324272 -0.554454 175 132 138
-0.146946 -0.324339 -0.554539 159 132 137
-0.147918 -0.324406 -0.554623 94 67 72
-0.148890 -0.324473 -0.554708 168 123 130
-0.149861 -0.324540 -0.554792 108 63 70
-0.150833 -0.324607 -0.554877 104 54 62
-0.151804 -0.324674 -0.554961 112 62 70
-0.152776 -0.324741 -0.555046 127 78 91
-0.153747 -0.324808 -0.555130 105 56 69
-0.154719 -0.324875 -0.555215 116 82 90
-0.155690 -0.324943 -0.555299 138 104 112
-0.156662 -0.325010 -0.555384 102 62 67
-0.157633 -0.325077 -0.555468 117 77 82
-0.158605 -0.325144 -0.555553 107 59 67
-0.159576 -0.325211 -0.555638 121 73 81
-0.160548 -0.325278 -0.555722 151 101 109
-0.161519 -0.325345 -0.555807 107 57 65
-0.162491 -0.325412 -0.555891 159 114 119
-0.163463 -0.325479 -0.555976 150 105 110
-0.164434 -0.325546 -0.556060 113 48 50
-0.165536 -0.326120 -0.555288 99 34 36
-0.166509 -0.326188 -0.555373 122 25 29
-0.167482 -0.326255 -0.555458 121 24 28
-0.168591 -0.326830 -0.554687 123 22 25
-0.169566 -0.326897 -0.554772 123 22 25
-0.170541 -0.326964 -0.554856 125 21 23
-0.171516 -0.327031 -0.554941 126 22 24
-0.172490 -0.327099 -0.555026 126 22 22
-0.173609 -0.327674 -0.554256 125 21 21
-0.174585 -0.327742 -0.554341 126 22 22
-0.175709 -0.328317 -0.553571 128 24 24
-0.176687 -0.328385 -0.553656 128 24 24
-0.177665 -0.328452 -0.553741 130 26 26
-0.178643 -0.328520 -0.553826 111 21 7
-0.179774 -0.329096 -0.553057 163 73 59
-0.180754 -0.329164 -0.553142 157 105 55
-0.181734 -0.329231 -0.553228 158 106 56
-0.182872 -0.329808 -0.552459 155 105 55
-0.183853 -0.329876 -0.552545 151 101 51
-0.184835 -0.329944 -0.552630 154 100 51
-0.185816 -0.330011 -0.552715 151 97 48
-0.186962 -0.330589 -0.551947 151 92 45
-0.187945 -0.330657 -0.552033 150 91 44
-0.188928 -0.330724 -0.552119 150 91 42
-0.189911 -0.330792 -0.552204 151 92 43
-0.191066 -0.331370 -0.551437 151 94 44
-0.192051 -0.331438 -0.551523 153 96 46
-0.193035 -0.331506 -0.551608 150 99 54
-0.194196 -0.332084 -0.550842 162 111 66
-0.195183 -0.332153 -0.550928 163 131 84
-0.196169 -0.332221 -0.551013 163 131 84
-0.197155 -0.332289 -0.551099 157 136 92
-0.198141 -0.332357 -0.551185 160 139 95
-0.199312 -0.332936 -0.550419 176 142 118
-0.200300 -0.333004 -0.550505 145 111 87
-0.201288 -0.333072 -0.550591 117 30 24
-0.202276 -0.333140 -0.550677 121 34 28
-0.203264 -0.333209 -0.550763 130 26 26
-0.204252 -0.333277 -0.550849 127 23 23
-0.205434 -0.333857 -0.550084 130 23 24
-0.206424 -0.333925 -0.550171 130 23 24
-0.207413 -0.333993 -0.550257 132 26 24
-0.208403 -0.334062 -0.550343 133 27 25
-0.209392 -0.334130 -0.550429 131 28 25
-0.210382 -0.334198 -0.550515 133 30 27
-0.211372 -0.334267 -0.550601 135 41 30
-0.212361 -0.334335 -0.550687 144 50 39
-0.213558 -0.334916 -0.549924 137 55 40
-0.214549 -0.334984 -0.550010 126 44 29
-0.215541 -0.335053 -0.550096 132 90 78
-0.216532 -0.335121 -0.550182 183 141 129
-0.217523 -0.335189 -0.550269 163 152 127
-0.218730 -0.335771 -0.549506 160 149 124
-0.219723 -0.335839 -0.549592 158 151 122
-0.220716 -0.335908 -0.549679 156 149 120
-0.221708 -0.335977 -0.549765 160 146 111
-0.222701 -0.336045 -0.549852 152 138 103
-0.223694 -0.336114 -0.549938 156 120 79
-0.224687 -0.336182 -0.550024 148 112 71
-0.225680 -0.336251 -0.550111 150 107 59
-0.226673 -0.336319 -0.550197 150 107 59
-0.227896 -0.336902 -0.549436 153 107 58
-0.229122 -0.337485 -0.548675 156 110 61
-0.230119 -0.337554 -0.548762 155 112 62
-0.231115 -0.337622 -0.548849 154 111 61
-0.232111 -0.337691 -0.548935 155 112 64
-0.233346 -0.338274 -0.548175 155 112 64
-0.234343 -0.338343 -0.548262 158 117 68
-0.235583 -0.338927 -0.547502 153 112 63
-0.236582 -0.338996 -0.547589 154 95 59
-0.237582 -0.339065 -0.547676 135 76 40
-0.238828 -0.339649 -0.546917 133 51 32
-0.239829 -0.339718 -0.547004 120 38 19
-0.240830 -0.339788 -0.547091 126 31 25
-0.242083 -0.340372 -0.546333 123 28 22
-0.243085 -0.340441 -0.546420 125 26 24
-0.244088 -0.340511 -0.546507 124 25 23
-0.245347 -0.341096 -0.545749 121 25 22
-0.246610 -0.341681 -0.544992 120 24 21
-0.247616 -0.341750 -0.545079 116 24 20
-0.248622 -0.341820 -0.545167 116 24 20
-0.249891 -0.342406 -0.544410 113 21 19
-0.250899 -0.342475 -0.544497 115 23 21
-0.252173 -0.343061 -0.543741 113 24 21
-0.253182 -0.343131 -0.543828 111 22 19
-0.254191 -0.343201 -0.543916 107 23 20
-0.255472 -0.343787 -0.543160 110 26 23
-0.256483 -0.343857 -0.543248 110 26 23
-0.257768 -0.344444 -0.542492 111 27 24
-0.258781 -0.344514 -0.542580 114 25 24
-0.259793 -0.344584 -0.542669 113 24 23
-0.260806 -0.344654 -0.542757 113 24 23
-0.261818 -0.344724 -0.542845 113 24 23
-0.262831 -0.344794 -0.542933 113 24 23
-0.264128 -0.345381 -0.542178 113 24 23
-0.265142 -0.345451 -0.542266 112 25 23
-0.266444 -0.346039 -0.541512 112 25 23
-0.267460 -0.346109 -0.541600 110 26 23
-0.268475 -0.346180 -0.541689 110 26 23
-0.269784 -0.346768 -0.540935 108 24 21
-0.270801 -0.346838 -0.541024 108 24 21
-0.271819 -0.346909 -0.541112 107 24 21
-0.272836 -0.346979 -0.541201 109 26 23
-0.273255 -0.346011 -0.542972 105 24 23
-0.274570 -0.346600 -0.542219 107 26 25
-0.275586 -0.346671 -0.542307 105 27 25
-0.276602 -0.346741 -0.542396 105 27 25
-0.277617 -0.346811 -0.542484 105 29 28
-0.278633 -0.346881 -0.542572 106 30 29
-0.279649 -0.346951 -0.542661 101 39 40
-0.280665 -0.347021 -0.542749 109 47 48
-0.117648 -0.328920 -0.538468 101 102 93
-0.119796 -0.330558 -0.536050 101 99 87
-0.120744 -0.330127 -0.537000 115 91 64
-0.121356 -0.326692 -0.543132 102 78 51
-0.122287 -0.326260 -0.544081 127 75 37
-0.123214 -0.325827 -0.545030 120 68 30
-0.124139 -0.325394 -0.545979 83 13 0
-0.125184 -0.325963 -0.545201 87 17 3
-0.126168 -0.326031 -0.545287 90 15 9
-0.127088 -0.325598 -0.546235 90 15 9
-0.128071 -0.325666 -0.546321 91 15 12
-0.128985 -0.325232 -0.547269 91 15 12
-0.129897 -0.324798 -0.548216 92 16 13
-0.130876 -0.324866 -0.548301 92 16 13
-0.131783 -0.324432 -0.549249 93 15 13
-0.132686 -0.323997 -0.550195 95 17 15
-0.133662 -0.324065 -0.550280 77 18 23
-0.134639 -0.324132 -0.550365 195 136 141
-0.135615 -0.324200 -0.550450 122 106 101
-0.136510 -0.323765 -0.551396 143 127 122
-0.137485 -0.323832 -0.551481 145 133 133
-0.138460 -0.323899 -0.551566 134 122 122
-0.139435 -0.323967 -0.551651 141 128 134
-0.140321 -0.323531 -0.552596 119 106 112
-0.141295 -0.323598 -0.552681 158 141 143
-0.142268 -0.323665 -0.552766 141 124 126
-0.143241 -0.323733 -0.552850 134 91 95
-0.144214 -0.323800 -0.552935 110 67 71
-0.145187 -0.323867 -0.553020 110 60 66
-0.146160 -0.323934 -0.553104 157 107 113
-0.147134 -0.324001 -0.553189 133 93 98
-0.148107 -0.324069 -0.553274 96 56 61
-0.149080 -0.324136 -0.553358 160 117 123
-0.150053 -0.324203 -0.553443 99 56 62
-0.150920 -0.323766 -0.554387 97 52 59
-0.151892 -0.323833 -0.554471 99 54 61
-0.152863 -0.323900 -0.554556 112 66 76
-0.153835 -0.323967 -0.554640 103 57 67
-0.154806 -0.324034 -0.554725 111 82 88
-0.155778 -0.324101 -0.554809 159 130 136
-0.156749 -0.324169 -0.554894 99 66 69
-0.157721 -0.324236 -0.554978 144 111 114
-0.158692 -0.324303 -0.555063 101 65 69
-0.159664 -0.324370 -0.555147 147 111 115
-0.160635 -0.324437 -0.555232 165 129 133
-0.161607 -0.324504 -0.555316 105 69 73
-0.162579 -0.324571 -0.555401 162 129 132
-0.163550 -0.324638 -0.555485 159 126 129
-0.164651 -0.325211 -0.554713 123 58 60
-0.165624 -0.325278 -0.554797 96 31 33
-0.166597 -0.325345 -0.554882 122 22 27
-0.167570 -0.325412 -0.554967 121 21 26
-0.168543 -0.325480 -0.555051 124 20 22
-0.169654 -0.326053 -0.554280 124 20 22
-0.170767 -0.326627 -0.553508 124 20 20
-0.171744 -0.326694 -0.553593 125 21 21
-0.172720 -0.326761 -0.553678 125 21 21
-0.173841 -0.327335 -0.552907 125 21 21
-0.174819 -0.327403 -0.552992 125 21 21
-0.175797 -0.327470 -0.553077 127 23 23
-0.176924 -0.328045 -0.552307 128 25 22
-0.177903 -0.328113 -0.552392 130 27 24
-0.178883 -0.328180 -0.552478 118 37 13
-0.180016 -0.328755 -0.551708 179 98 74
-0.180998 -0.328823 -0.551793 154 102 50
-0.181979 -0.328891 -0.551879 157 105 53
-0.182960 -0.328959 -0.551964 154 102 50
-0.184102 -0.329534 -0.551195 151 99 47
-0.185085 -0.329602 -0.551280 153 96 48
-0.186068 -0.329670 -0.551366 150 93 45
-0.187051 -0.329738 -0.551451 150 91 44
-0.188201 -0.330314 -0.550683 148 89 42
-0.189185 -0.330382 -0.550769 150 91 44
-0.190170 -0.330450 -0.550854 151 92 45
-0.191326 -0.331026 -0.550087 151 94 44
-0.192313 -0.331094 -0.550173 154 97 47
-0.193299 -0.331162 -0.550258 154 110 67
-0.194462 -0.331739 -0.549491 164 120 77
-0.195450 -0.331808 -0.549577 161 133 87
-0.196438 -0.331876 -0.549663 163 135 89
-0.197425 -0.331944 -0.549749 158 139 96
-0.198413 -0.332012 -0.549835 163 144 101
-0.199401 -0.332081 -0.549921 166 120 100
-0.200389 -0.332149 -0.550007 126 80 60
-0.201565 -0.332727 -0.549241 126 31 28
-0.202555 -0.332795 -0.549327 126 31 28
-0.203544 -0.332863 -0.549413 130 26 26
-0.204534 -0.332932 -0.549499 128 24 24
-0.205523 -0.333000 -0.549585 130 23 24
-0.206513 -0.333068 -0.549671 132 25 26
-0.207700 -0.333647 -0.548906 132 26 24
-0.208692 -0.333715 -0.548992 133 27 25
-0.209683 -0.333784 -0.549079 130 30 26
-0.210674 -0.333852 -0.549165 132 32 28
-0.211665 -0.333921 -0.549251 134 39 31
-0.212656 -0.333989 -0.549337 140 45 37
-0.213648 -0.334058 -0.549424 128 60 50
-0.214639 -0.334126 -0.549510 163 95 85
-0.215630 -0.334194 -0.549596 160 140 120
-0.216834 -0.334774 -0.548832 171 151 131
-0.217827 -0.334843 -0.548919 159 155 128
-0.218819 -0.334911 -0.549005 157 153 126
-0.219812 -0.334980 -0.549091 157 152 121
-0.220805 -0.335048 -0.549178 154 149 118
-0.222019 -0.335629 -0.548415 162 142 104
-0.223013 -0.335698 -0.548502 147 127 89
-0.224008 -0.335766 -0.548588 153 109 66
-0.225002 -0.335835 -0.548675 147 103 60
-0.225997 -0.335904 -0.548761 151 100 55
-0.226991 -0.335972 -0.548848 152 101 56
-0.228216 -0.336554 -0.548086 152 106 57
-0.229212 -0.336622 -0.548173 155 109 60
-0.230442 -0.337204 -0.547411 154 112 59
-0.231440 -0.337273 -0.547498 154 112 59
-0.232438 -0.337342 -0.547585 157 114 64
-0.233674 -0.337924 -0.546824 158 115 65
-0.234674 -0.337993 -0.546911 158 119 70
-0.235915 -0.338575 -0.546151 157 118 69
-0.236916 -0.338644 -0.546238 160 114 69
-0.237917 -0.338714 -0.546325 147 101 56
-0.239165 -0.339296 -0.545565 144 76 48
-0.240168 -0.339366 -0.545652 133 65 37
-0.241171 -0.339435 -0.545740 121 28 17
-0.242425 -0.340018 -0.544980 124 31 20
-0.243429 -0.340088 -0.545068 123 28 22
-0.244434 -0.340157 -0.545155 122 27 21
-0.245695 -0.340741 -0.544396 121 25 22
-0.246959 -0.341325 -0.543638 120 24 21
-0.247967 -0.341394 -0.543726 116 24 22
-0.248974 -0.341464 -0.543813 116 24 22
-0.249982 -0.341533 -0.543901 111 22 19
-0.250990 -0.341603 -0.543989 113 24 21
-0.252264 -0.342188 -0.543231 112 25 21
-0.253273 -0.342257 -0.543319 109 22 18
-0.254552 -0.342842 -0.542562 107 23 20
-0.255563 -0.342912 -0.542650 110 26 23
-0.256574 -0.342982 -0.542738 110 26 23
-0.257860 -0.343567 -0.541981 111 27 24
-0.258872 -0.343637 -0.542070 113 26 24
-0.259885 -0.343707 -0.542158 113 26 24
-0.260897 -0.343777 -0.542246 112 25 23
-0.261910 -0.343847 -0.542334 112 25 23
-0.263205 -0.344433 -0.541578 113 26 24
-0.264219 -0.344503 -0.541666 113 26 24
-0.265233 -0.344573 -0.541755 112 25 23
-0.266535 -0.345160 -0.541000 112 25 23
-0.267551 -0.345230 -0.541088 110 26 23
-0.268567 -0.345300 -0.541176 111 27 24
-0.269876 -0.345887 -0.540422 108 24 21
-0.270893 -0.345958 -0.540510 108 24 21
-0.272207 -0.346545 -0.539756 107 24 21
-0.273226 -0.346615 -0.539845 109 26 23
-0.273646 -0.345651 -0.541618 107 26 25
-0.274662 -0.345721 -0.541706 108 27 26
-0.275677 -0.345791 -0.541795 106 28 26
-0.276693 -0.345861 -0.541883 106 28 26
-0.277709 -0.345931 -0.541972 105 29 28
-0.278725 -0.346002 -0.542060 107 31 30
-0.279740 -0.346072 -0.542148 101 39 38
-0.280756 -0.346142 -0.542237 108 46 45
-0.116789 -0.328487 -0.537013 98 96 88
-0.117738 -0.328057 -0.537965 105 103 95
-0.119939 -0.330190 -0.534680 97 98 87
-0.120672 -0.327765 -0.539089 112 94 72
-0.121389 -0.325338 -0.543497 102 84 62
-0.122319 -0.324907 -0.544447 127 77 43
-0.123362 -0.325474 -0.543669 125 75 41
-0.124288 -0.325042 -0.544619 83 12 1
-0.125335 -0.325610 -0.543841 88 17 6
-0.126321 -0.325678 -0.543926 89 17 10
-0.127242 -0.325246 -0.544876 88 16 9
-0.128226 -0.325314 -0.544961 91 15 12
-0.129142 -0.324882 -0.545910 91 15 12
-0.130055 -0.324450 -0.546859 92 16 13
-0.131037 -0.324518 -0.546944 92 16 13
-0.131945 -0.324085 -0.547892 93 17 14
-0.132849 -0.323652 -0.548840 95 19 16
-0.133827 -0.323720 -0.548925 77 21 25
-0.134805 -0.323787 -0.549010 191 135 139
-0.135783 -0.323855 -0.549095 128 105 102
-0.136680 -0.323422 -0.550043 121 98 95
-0.137573 -0.322988 -0.550989 152 130 132
-0.138548 -0.323055 -0.551074 136 114 116
-0.139523 -0.323123 -0.551159 134 106 115
-0.140497 -0.323190 -0.551244 109 81 90
-0.141472 -0.323257 -0.551329 144 106 110
-0.142355 -0.322823 -0.552275 114 76 80
-0.143329 -0.322890 -0.552359 141 82 85
-0.144302 -0.322957 -0.552444 96 37 40
-0.145275 -0.323024 -0.552529 102 34 40
-0.146248 -0.323092 -0.552613 114 46 52
-0.147221 -0.323159 -0.552698 100 45 53
-0.148194 -0.323226 -0.552782 117 62 70
-0.149168 -0.323293 -0.552867 157 120 127
-0.150141 -0.323360 -0.552952 109 72 79
-0.151114 -0.323428 -0.553036 136 104 109
-0.152087 -0.323495 -0.553121 129 97 102
-0.152951 -0.323059 -0.554065 107 77 87
-0.153922 -0.323126 -0.554150 144 114 124
-0.154894 -0.323193 -0.554234 130 109 116
-0.155865 -0.323260 -0.554319 166 145 152
-0.156837 -0.323327 -0.554403 117 90 93
-0.157808 -0.323395 -0.554488 154 127 130
-0.158780 -0.323462 -0.554572 114 86 85
-0.159752 -0.323529 -0.554657 151 123 122
-0.160723 -0.323596 -0.554741 168 137 139
-0.161819 -0.324167 -0.553968 99 68 70
-0.162792 -0.324234 -0.554052 168 128 129
-0.163765 -0.324301 -0.554137 158 118 119
-0.164738 -0.324368 -0.554222 126 53 58
-0.165712 -0.324435 -0.554306 99 26 31
-0.166685 -0.324503 -0.554391 122 21 24
-0.167792 -0.325074 -0.553618 121 20 23
-0.168767 -0.325142 -0.553703 124 20 22
-0.169879 -0.325714 -0.552931 124 20 22
-0.170855 -0.325781 -0.553015 124 20 20
-0.171832 -0.325849 -0.553100 124 20 20
-0.172808 -0.325916 -0.553185 127 20 21
-0.173929 -0.326489 -0.552414 126 19 20
-0.174907 -0.326556 -0.552499 127 20 21
-0.176032 -0.327129 -0.551727 128 21 22
-0.177012 -0.327197 -0.551813 127 24 21
-0.177992 -0.327264 -0.551898 127 24 21
-0.179123 -0.327838 -0.551127 133 57 27
-0.180105 -0.327906 -0.551213 173 97 67
-0.181086 -0.327973 -0.551298 153 101 49
-0.182068 -0.328041 -0.551383 153 101 49
-0.183049 -0.328109 -0.551469 152 98 47
-0.184191 -0.328683 -0.550699 149 95 44
-0.185174 -0.328751 -0.550784 151 92 45
-0.186157 -0.328819 -0.550870 150 91 44
-0.187140 -0.328887 -0.550955 149 90 43
-0.188289 -0.329461 -0.550186 148 89 42
-0.189274 -0.329529 -0.550272 149 90 43
-0.190429 -0.330104 -0.549503 151 92 45
-0.191415 -0.330172 -0.549589 151 93 48
-0.192401 -0.330241 -0.549675 163 105 60
-0.193388 -0.330309 -0.549761 159 124 80
-0.194551 -0.330884 -0.548993 165 130 86
-0.195539 -0.330952 -0.549079 160 137 89
-0.196527 -0.331021 -0.549165 161 138 90
-0.197515 -0.331089 -0.549250 159 139 99
-0.198686 -0.331665 -0.548483 170 150 110
-0.199675 -0.331733 -0.548569 129 64 51
-0.200665 -0.331802 -0.548655 114 49 36
-0.201654 -0.331870 -0.548741 130 34 31
-0.202834 -0.332447 -0.547975 127 31 28
-0.203825 -0.332515 -0.548061 130 26 26
-0.204816 -0.332584 -0.548147 128 24 24
-0.205807 -0.332652 -0.548234 132 26 24
-0.206798 -0.332720 -0.548320 132 26 24
-0.207790 -0.332789 -0.548406 132 26 24
-0.208781 -0.332857 -0.548492 133 27 25
-0.209772 -0.332926 -0.548578 131 31 27
-0.210763 -0.332994 -0.548665 133 33 29
-0.211754 -0.333063 -0.548751 130 39 32
-0.212952 -0.333641 -0.547986 131 40 33
-0.213945 -0.333709 -0.548072 148 107 88
-0.214938 -0.333778 -0.548159 176 135 116
-0.215930 -0.333846 -0.548245 162 154 128
-0.216923 -0.333915 -0.548331 160 152 126
-0.217916 -0.333983 -0.548418 159 155 128
-0.219125 -0.334562 -0.547654 157 153 126
-0.220119 -0.334631 -0.547740 161 151 119
-0.221114 -0.334699 -0.547827 155 145 113
-0.222108 -0.334768 -0.547913 160 129 88
-0.223103 -0.334837 -0.548000 148 117 76
-0.224321 -0.335416 -0.547237 151 100 55
-0.225318 -0.335485 -0.547323 149 98 53
-0.226314 -0.335554 -0.547410 151 98 53
-0.227310 -0.335622 -0.547497 153 100 55
-0.228537 -0.336202 -0.546734 154 107 56
-0.229534 -0.336271 -0.546821 156 109 58
-0.230766 -0.336852 -0.546059 156 111 59
-0.231766 -0.336921 -0.546146 156 111 59
-0.232765 -0.336990 -0.546233 156 116 62
-0.234003 -0.337570 -0.545471 158 118 64
-0.235004 -0.337640 -0.545558 157 118 67
-0.236248 -0.338221 -0.544797 157 118 67
-0.237250 -0.338290 -0.544885 157 114 66
-0.238253 -0.338359 -0.544972 148 105 57
-0.239503 -0.338941 -0.544211 152 96 59
-0.240507 -0.339010 -0.544299 147 91 54
-0.241511 -0.339079 -0.544386 118 28 16
-0.242768 -0.339661 -0.543626 123 33 21
-0.243774 -0.339731 -0.543714 125 30 24
-0.244780 -0.339800 -0.543801 122 27 21
-0.246043 -0.340383 -0.543042 120 25 22
-0.247309 -0.340966 -0.542283 119 24 21
-0.248318 -0.341035 -0.542371 114 25 22
-0.249327 -0.341105 -0.542459 114 25 22
-0.250336 -0.341175 -0.542546 113 24 21
-0.251346 -0.341244 -0.542634 113 24 21
-0.252622 -0.341828 -0.541876 112 25 21
-0.253632 -0.341897 -0.541964 109 22 18
-0.254643 -0.341967 -0.542052 108 24 21
-0.255926 -0.342551 -0.541294 111 27 24
-0.256938 -0.342621 -0.541382 113 26 24
-0.257951 -0.342691 -0.541471 113 26 24
-0.259240 -0.343275 -0.540713 114 25 24
-0.260254 -0.343345 -0.540802 114 25 24
-0.261268 -0.343415 -0.540890 114 25 24
-0.262282 -0.343485 -0.540978 113 24 23
-0.263297 -0.343555 -0.541066 113 26 24
-0.264596 -0.344140 -0.540310 113 26 24
-0.265611 -0.344210 -0.540399 112 25 23
-0.266627 -0.344281 -0.540487 113 26 24
-0.267933 -0.344866 -0.539731 110 26 23
-0.268950 -0.344936 -0.539820 111 27 24
-0.269967 -0.345006 -0.539908 109 26 23
-0.271279 -0.345592 -0.539153 109 26 23
-0.272299 -0.345663 -0.539242 109 26 23
-0.273615 -0.346249 -0.538487 110 27 24
-0.274636 -0.346319 -0.538576 107 27 23
-0.275657 -0.346390 -0.538665 108 28 24
-0.275769 -0.344912 -0.541282 106 28 26
-0.276785 -0.344982 -0.541371 107 29 27
-0.277801 -0.345052 -0.541459 106 30 29
-0.278816 -0.345122 -0.541547 108 32 31
-0.280141 -0.345709 -0.540793 101 39 38
-0.281159 -0.345779 -0.540882 108 46 45
-0.116879 -0.327623 -0.536510 92 90 82
-0.117828 -0.327195 -0.537462 105 103 95
-0.119077 -0.329751 -0.533221 101 102 93
-0.119820 -0.327332 -0.537636 97 98 89
-0.120708 -0.326406 -0.539453 110 96 77
-0.121534 -0.324982 -0.542135 100 86 67
-0.122522 -0.325050 -0.542221 122 77 43
-0.123510 -0.325118 -0.542306 124 79 45
-0.124437 -0.324688 -0.543257 86 21 8
-0.125486 -0.325254 -0.542478 85 20 7
-0.126474 -0.325323 -0.542564 89 17 10
-0.127331 -0.324394 -0.544379 89 17 10
-0.128315 -0.324462 -0.544465 91 15 12
-0.129300 -0.324530 -0.544550 91 15 12
-0.130214 -0.324099 -0.545500 92 16 13
-0.131125 -0.323668 -0.546449 92 16 13
-0.132106 -0.323736 -0.546534 93 17 14
-0.133013 -0.323305 -0.547483 95 19 16
-0.133992 -0.323372 -0.547568 82 16 21
-0.134972 -0.323440 -0.547654 169 103 108
-0.135952 -0.323508 -0.547739 108 63 66
-0.136850 -0.323076 -0.548687 93 48 51
-0.137744 -0.322644 -0.549635 131 83 87
-0.138721 -0.322711 -0.549720 109 61 65
-0.139697 -0.322779 -0.549805 119 67 72
-0.140674 -0.322846 -0.549890 105 53 58
-0.141650 -0.322913 -0.549974 105 42 46
-0.142535 -0.322481 -0.550921 98 35 39
-0.143510 -0.322548 -0.551006 104 30 33
-0.144484 -0.322615 -0.551091 102 28 31
-0.145459 -0.322682 -0.551176 108 29 32
-0.146434 -0.322750 -0.551261 110 31 34
-0.147409 -0.322817 -0.551345 96 32 41
-0.148384 -0.322884 -0.551430 125 61 70
-0.149255 -0.322451 -0.552376 164 135 141
-0.150229 -0.322518 -0.552461 120 91 97
-0.151202 -0.322585 -0.552545 151 131 134
-0.152175 -0.322652 -0.552630 143 123 126
-0.153148 -0.322719 -0.552715 115 92 100
-0.154121 -0.322787 -0.552799 144 121 129
-0.155094 -0.322854 -0.552884 139 118 125
-0.156068 -0.322921 -0.552969 154 133 140
-0.157041 -0.322988 -0.553053 125 96 100
-0.158014 -0.323055 -0.553138 153 124 128
-0.158987 -0.323123 -0.553223 123 90 89
-0.159960 -0.323190 -0.553307 144 111 110
-0.160933 -0.323257 -0.553392 154 110 110
-0.161907 -0.323324 -0.553477 92 48 48
-0.162880 -0.323391 -0.553561 150 84 89
-0.163853 -0.323459 -0.553646 143 77 82
-0.164826 -0.323526 -0.553731 124 38 43
-0.165930 -0.324096 -0.552957 112 26 31
-0.166905 -0.324163 -0.553041 122 21 24
-0.168014 -0.324734 -0.552268 121 20 23
-0.168991 -0.324801 -0.552353 124 20 22
-0.169967 -0.324868 -0.552438 124 20 22
-0.171083 -0.325439 -0.551665 125 18 19
-0.172061 -0.325507 -0.551750 126 19 20
-0.173039 -0.325574 -0.551835 127 20 21
-0.174161 -0.326146 -0.551063 126 19 20
-0.175141 -0.326213 -0.551148 126 19 20
-0.176268 -0.326785 -0.550376 129 22 23
-0.177249 -0.326853 -0.550461 129 23 21
-0.178231 -0.326921 -0.550547 122 16 14
-0.179364 -0.327493 -0.549775 159 86 53
-0.180347 -0.327561 -0.549861 165 92 59
-0.181330 -0.327628 -0.549946 155 98 50
-0.182313 -0.327696 -0.550032 154 97 49
-0.183296 -0.327764 -0.550117 151 94 46
-0.184440 -0.328337 -0.549347 150 93 45
-0.185424 -0.328405 -0.549432 151 89 43
-0.186409 -0.328473 -0.549518 151 89 43
-0.187394 -0.328541 -0.549604 151 89 43
-0.188545 -0.329114 -0.548834 150 88 42
-0.189532 -0.329182 -0.548920 151 89 43
-0.190518 -0.329250 -0.549006 153 91 45
-0.191676 -0.329824 -0.548236 147 92 46
-0.192664 -0.329893 -0.548322 170 115 69
-0.193652 -0.329961 -0.548408 159 129 81
-0.194640 -0.330029 -0.548494 165 135 87
-0.195628 -0.330097 -0.548580 158 138 89
-0.196796 -0.330672 -0.547812 159 139 90
-0.197785 -0.330740 -0.547898 164 139 101
-0.198775 -0.330808 -0.547984 144 119 81
-0.199764 -0.330877 -0.548070 117 37 29
-0.200754 -0.330945 -0.548156 125 45 37
-0.201744 -0.331013 -0.548242 131 32 30
-0.202923 -0.331589 -0.547475 128 29 27
-0.203914 -0.331657 -0.547561 130 26 26
-0.204905 -0.331725 -0.547647 130 26 26
-0.205897 -0.331794 -0.547733 132 26 24
-0.206888 -0.331862 -0.547820 132 26 24
-0.208077 -0.332438 -0.547053 131 28 25
-0.209070 -0.332507 -0.547139 132 29 26
-0.210063 -0.332575 -0.547226 132 32 28
-0.211056 -0.332644 -0.547312 132 32 28
-0.212049 -0.332712 -0.547399 123 49 36
-0.213041 -0.332781 -0.547485 166 92 79
-0.214034 -0.332850 -0.547571 170 146 121
-0.215027 -0.332918 -0.547658 173 149 124
-0.216020 -0.332987 -0.547744 159 154 125
-0.217226 -0.333564 -0.546979 158 153 124
-0.218220 -0.333632 -0.547065 158 151 120
-0.219215 -0.333701 -0.547152 155 148 117
-0.220427 -0.334279 -0.546387 161 141 103
-0.221423 -0.334347 -0.546474 157 137 99
-0.222419 -0.334416 -0.546561 160 118 74
-0.223415 -0.334485 -0.546647 149 107 63
-0.224411 -0.334554 -0.546734 152 97 53
-0.225407 -0.334623 -0.546821 151 96 52
-0.226403 -0.334691 -0.546907 152 97 53
-0.227629 -0.335270 -0.546144 154 99 55
-0.228858 -0.335848 -0.545381 155 105 55
-0.229857 -0.335917 -0.545468 157 107 57
-0.230856 -0.335986 -0.545555 156 109 58
-0.232091 -0.336566 -0.544792 157 110 59
-0.233093 -0.336635 -0.544879 157 115 62
-0.234333 -0.337214 -0.544117 158 116 63
-0.235335 -0.337283 -0.544204 158 118 64
-0.236338 -0.337353 -0.544291 158 118 64
-0.237585 -0.337933 -0.543530 158 115 65
-0.238589 -0.338002 -0.543617 151 108 58
-0.239841 -0.338582 -0.542856 153 100 57
-0.240847 -0.338652 -0.542944 160 107 64
-0.241852 -0.338721 -0.543031 116 29 14
-0.242858 -0.338791 -0.543119 122 35 20
-0.244118 -0.339371 -0.542358 124 30 24
-0.245126 -0.339441 -0.542446 122 28 22
-0.246133 -0.339511 -0.542534 121 26 23
-0.247400 -0.340092 -0.541774 119 24 21
-0.248409 -0.340162 -0.541862 114 25 20
-0.249418 -0.340231 -0.541949 114 25 20
-0.250427 -0.340301 -0.542037 113 24 21
-0.251702 -0.340883 -0.541278 114 25 22
-0.252713 -0.340953 -0.541366 112 25 21
-0.253724 -0.341022 -0.541454 110 23 19
-0.255005 -0.341605 -0.540695 112 25 21
-0.256017 -0.341675 -0.540783 114 27 23
-0.257303 -0.342257 -0.540025 114 27 23
-0.258317 -0.342327 -0.540114 114 27 23
-0.259331 -0.342397 -0.540202 115 26 23
-0.260346 -0.342467 -0.540290 115 26 23
-0.261360 -0.342537 -0.540378 114 27 23
-0.262374 -0.342607 -0.540466 113 26 22
-0.263671 -0.343191 -0.539709 114 27 23
-0.264687 -0.343261 -0.539798 113 26 22
-0.265703 -0.343331 -0.539886 111 27 22
-0.267007 -0.343915 -0.539129 111 27 22
-0.268024 -0.343985 -0.539218 110 26 21
-0.269042 -0.344055 -0.539306 111 27 22
-0.270352 -0.344640 -0.538550 109 26 21
-0.271371 -0.344710 -0.538639 109 26 21
-0.272687 -0.345295 -0.537884 110 27 24
-0.273707 -0.345365 -0.537972 110 27 24
-0.274728 -0.345436 -0.538061 108 28 24
-0.276050 -0.346021 -0.537306 109 29 25
-0.276164 -0.344547 -0.539926 107 29 27
-0.277181 -0.344617 -0.540014 107 29 27
-0.278198 -0.344688 -0.540103 107 31 30
-0.279216 -0.344758 -0.540191 108 32 31
-0.280233 -0.344828 -0.540280 102 40 39
-0.281251 -0.344898 -0.540368 108 46 45
-0.119168 -0.328881 -0.532714 101 103 94
-0.119962 -0.326966 -0.536267 97 99 90
-0.120906 -0.326539 -0.537220 109 97 81
-0.121902 -0.326608 -0.537306 105 93 77
-0.122611 -0.324194 -0.541722 117 73 43
-0.123599 -0.324263 -0.541808 121 77 47
-0.124587 -0.324331 -0.541894 92 27 16
-0.125637 -0.324896 -0.541114 85 20 9
-0.126563 -0.324467 -0.542066 89 16 12
-0.127485 -0.324039 -0.543017 89 16 12
-0.128471 -0.324107 -0.543103 91 15 12
-0.129389 -0.323678 -0.544053 91 15 12
-0.130373 -0.323746 -0.544139 92 16 13
-0.131286 -0.323316 -0.545089 92 16 13
-0.132195 -0.322886 -0.546039 94 16 14
-0.133101 -0.322457 -0.546989 95 17 15
-0.134081 -0.322524 -0.547074 93 19 24
-0.135060 -0.322592 -0.547159 131 57 62
-0.136040 -0.322659 -0.547244 97 29 35
-0.136938 -0.322229 -0.548193 99 31 37
-0.137916 -0.322297 -0.548278 106 36 40
-0.138894 -0.322364 -0.548363 100 30 34
-0.139872 -0.322432 -0.548449 105 31 34
-0.140762 -0.322001 -0.549397 105 31 34
-0.141738 -0.322068 -0.549482 106 27 30
-0.142714 -0.322135 -0.549567 105 26 29
-0.143597 -0.321704 -0.550514 107 26 27
-0.144572 -0.321771 -0.550599 105 24 25
-0.145547 -0.321839 -0.550684 110 25 25
-0.146522 -0.321906 -0.550769 111 26 26
-0.147497 -0.321973 -0.550854 100 25 33
-0.148472 -0.322040 -0.550938 127 52 60
-0.149446 -0.322108 -0.551023 173 134 141
-0.150421 -0.322175 -0.551108 137 98 105
-0.151396 -0.322242 -0.551193 159 135 137
-0.152371 -0.322310 -0.551278 149 125 127
-0.153346 -0.322377 -0.551362 117 91 91
-0.154320 -0.322444 -0.551447 151 125 125
-0.155295 -0.322512 -0.551532 144 107 114
-0.156270 -0.322579 -0.551617 129 92 99
-0.157245 -0.322646 -0.551701 137 87 91
-0.158220 -0.322713 -0.551786 125 75 79
-0.159194 -0.322781 -0.551871 138 79 82
-0.160169 -0.322848 -0.551956 125 66 69
-0.161144 -0.322915 -0.552041 124 51 54
-0.162119 -0.322983 -0.552125 109 36 39
-0.163094 -0.323050 -0.552210 118 34 36
-0.164069 -0.323117 -0.552295 121 37 39
-0.165043 -0.323185 -0.552380 129 37 37
-0.166149 -0.323753 -0.551605 116 24 24
-0.167126 -0.323821 -0.551690 123 19 21
-0.168237 -0.324390 -0.550916 123 19 21
-0.169215 -0.324457 -0.551001 125 18 19
-0.170193 -0.324525 -0.551086 125 18 19
-0.171310 -0.325095 -0.550313 126 17 19
-0.172290 -0.325162 -0.550398 126 17 19
-0.173270 -0.325230 -0.550483 128 20 19
-0.174394 -0.325800 -0.549710 127 19 18
-0.175375 -0.325868 -0.549795 128 20 19
-0.176504 -0.326438 -0.549023 130 22 21
-0.177487 -0.326506 -0.549108 128 25 20
-0.178470 -0.326574 -0.549194 121 18 13
-0.179605 -0.327145 -0.548422 166 96 59
-0.180590 -0.327213 -0.548507 162 92 55
-0.181575 -0.327281 -0.548593 154 97 49
-0.182559 -0.327349 -0.548679 151 94 46
-0.183544 -0.327417 -0.548764 149 90 43
-0.184689 -0.327988 -0.547993 148 89 42
-0.185675 -0.328056 -0.548079 149 87 41
-0.186662 -0.328124 -0.548165 150 88 42
-0.187648 -0.328192 -0.548250 151 89 43
-0.188801 -0.328764 -0.547480 149 87 41
-0.189789 -0.328833 -0.547566 151 89 43
-0.190777 -0.328901 -0.547652 153 91 45
-0.191765 -0.328969 -0.547738 146 93 48
-0.192753 -0.329037 -0.547824 172 119 74
-0.193916 -0.329610 -0.547054 160 132 86
-0.194906 -0.329678 -0.547140 164 136 90
-0.195895 -0.329747 -0.547226 158 139 92
-0.196885 -0.329815 -0.547312 158 139 92
-0.197875 -0.329883 -0.547398 176 146 110
-0.198864 -0.329952 -0.547484 120 90 54
-0.200039 -0.330525 -0.546716 124 38 29
-0.201030 -0.330594 -0.546802 128 42 33
-0.202021 -0.330662 -0.546888 131 30 29
-0.203012 -0.330730 -0.546974 129 28 27
-0.204004 -0.330799 -0.547061 132 26 24
-0.204995 -0.330867 -0.547147 132 26 24
-0.206181 -0.331442 -0.546379 132 26 22
-0.207174 -0.331510 -0.546466 133 27 23
-0.208167 -0.331579 -0.546552 131 28 23
-0.209160 -0.331647 -0.546638 133 30 25
-0.210152 -0.331716 -0.546725 130 35 29
-0.211145 -0.331784 -0.546811 129 34 28
-0.212138 -0.331853 -0.546897 146 94 74
-0.213131 -0.331921 -0.546984 181 129 109
-0.214332 -0.332497 -0.546217 163 148 118
-0.215326 -0.332566 -0.546304 166 151 121
-0.216321 -0.332634 -0.546391 160 155 124
-0.217315 -0.332703 -0.546477 156 151 120
-0.218310 -0.332771 -0.546564 157 141 109
-0.219520 -0.333348 -0.545798 151 135 103
-0.220517 -0.333416 -0.545885 160 122 82
-0.221513 -0.333485 -0.545971 154 116 76
-0.222509 -0.333554 -0.546058 158 105 62
-0.223505 -0.333623 -0.546145 152 99 56
-0.224501 -0.333691 -0.546231 151 93 52
-0.225723 -0.334268 -0.545467 153 95 54
-0.226721 -0.334337 -0.545554 154 96 53
-0.227948 -0.334914 -0.544789 155 97 54
-0.228948 -0.334983 -0.544876 155 103 53
-0.229947 -0.335052 -0.544963 158 106 56
-0.231181 -0.335630 -0.544200 157 107 57
-0.232418 -0.336208 -0.543437 158 108 58
-0.233420 -0.336277 -0.543524 157 110 59
-0.234662 -0.336855 -0.542761 160 113 62
-0.235667 -0.336924 -0.542848 160 115 63
-0.236671 -0.336994 -0.542936 160 115 63
-0.237919 -0.337572 -0.542174 158 116 63
-0.238925 -0.337642 -0.542261 152 110 57
-0.239931 -0.337711 -0.542349 155 102 57
-0.240937 -0.337781 -0.542436 161 108 63
-0.242194 -0.338360 -0.541675 116 31 15
-0.243201 -0.338430 -0.541762 121 36 20
-0.244209 -0.338499 -0.541850 124 30 24
-0.245217 -0.338569 -0.541938 124 30 24
-0.246481 -0.339148 -0.541177 122 27 24
-0.247491 -0.339218 -0.541264 120 25 22
-0.248500 -0.339288 -0.541352 117 25 23
-0.249771 -0.339868 -0.540592 117 25 23
-0.250782 -0.339938 -0.540680 117 25 23
-0.251793 -0.340008 -0.540768 118 26 24
-0.252804 -0.340077 -0.540856 117 25 23
-0.254083 -0.340658 -0.540096 117 25 23
-0.255096 -0.340728 -0.540184 115 26 23
-0.256108 -0.340798 -0.540272 117 28 25
-0.257395 -0.341379 -0.539514 116 27 24
-0.258409 -0.341449 -0.539602 115 26 23
-0.259423 -0.341519 -0.539690 115 26 23
-0.260437 -0.341589 -0.539778 115 26 23
-0.261451 -0.341659 -0.539866 115 26 23
-0.262747 -0.342241 -0.539108 114 25 22
-0.263763 -0.342311 -0.539197 115 28 24
-0.264779 -0.342381 -0.539285 114 27 23
-0.266081 -0.342964 -0.538528 112 28 23
-0.267099 -0.343034 -0.538616 111 27 22
-0.268406 -0.343617 -0.537859 111 27 22
-0.269425 -0.343687 -0.537948 112 28 23
-0.270444 -0.343758 -0.538036 111 27 22
-0.271463 -0.343828 -0.538125 110 26 21
-0.272779 -0.344411 -0.537368 110 27 24
-0.273800 -0.344482 -0.537457 110 27 24
-0.275120 -0.345065 -0.536701 108 28 24
-0.276444 -0.345649 -0.535946 109 29 25
-0.276558 -0.344180 -0.538568 107 29 27
-0.277882 -0.344764 -0.537812 107 29 27
-0.278903 -0.344834 -0.537901 108 32 31
-0.279924 -0.344904 -0.537990 109 33 32
-0.280635 -0.344461 -0.538923 99 40 43
-0.281654 -0.344531 -0.539011 108 49 52
-0.119309 -0.328506 -0.531340 101 103 94
-0.120052 -0.326102 -0.535763 101 103 94
-0.121050 -0.326171 -0.535850 104 96 82
-0.121992 -0.325745 -0.536804 105 97 83
-0.122873 -0.324824 -0.538624 114 69 46
-0.123865 -0.324893 -0.538710 111 66 43
-0.124676 -0.323476 -0.541395 102 37 28
-0.125664 -0.323544 -0.541481 86 21 12
-0.126459 -0.322126 -0.544166 90 17 13
-0.127640 -0.323680 -0.541653 89 16 12
-0.128560 -0.323253 -0.542605 91 15 12
-0.129546 -0.323321 -0.542691 91 15 12
-0.130533 -0.323389 -0.542777 92 16 13
-0.131447 -0.322961 -0.543728 93 17 14
-0.132357 -0.322533 -0.544679 94 16 14
-0.133265 -0.322105 -0.545629 95 17 15
-0.134246 -0.322172 -0.545715 100 22 22
-0.135227 -0.322240 -0.545800 109 31 31
-0.136209 -0.322308 -0.545885 105 26 31
-0.137108 -0.321879 -0.546835 103 24 29
-0.138004 -0.321450 -0.547785 105 26 29
-0.138982 -0.321517 -0.547870 103 24 27
-0.139960 -0.321585 -0.547955 105 23 27
-0.140938 -0.321652 -0.548040 105 23 27
-0.141916 -0.321720 -0.548125 106 22 24
-0.142803 -0.321290 -0.549074 106 22 24
-0.143779 -0.321357 -0.549159 107 23 23
-0.144755 -0.321425 -0.549244 106 22 22
-0.145732 -0.321492 -0.549329 107 23 20
-0.146708 -0.321560 -0.549414 110 26 23
-0.147685 -0.321627 -0.549499 111 26 33
-0.148661 -0.321695 -0.549584 105 20 27
-0.149638 -0.321762 -0.549669 163 103 111
-0.150614 -0.321829 -0.549753 123 63 71
-0.151591 -0.321897 -0.549838 146 103 105
-0.152567 -0.321964 -0.549923 137 94 96
-0.153543 -0.322032 -0.550008 117 68 69
-0.154520 -0.322099 -0.550093 118 69 70
-0.155496 -0.322166 -0.550178 124 61 67
-0.156473 -0.322234 -0.550263 111 48 54
-0.157449 -0.322301 -0.550348 123 46 52
-0.158308 -0.321870 -0.551294 108 31 37
-0.159282 -0.321937 -0.551379 117 31 36
-0.160257 -0.322004 -0.551464 117 31 36
-0.161232 -0.322071 -0.551549 118 28 30
-0.162331 -0.322638 -0.550773 117 27 29
-0.163308 -0.322706 -0.550858 120 28 28
-0.164284 -0.322773 -0.550943 125 33 33
-0.165261 -0.322841 -0.551028 142 47 44
-0.166369 -0.323408 -0.550252 118 23 20
-0.167347 -0.323476 -0.550337 123 19 19
-0.168325 -0.323543 -0.550422 121 17 17
-0.169303 -0.323611 -0.550508 125 18 19
-0.170419 -0.324179 -0.549733 125 18 19
-0.171398 -0.324246 -0.549818 126 17 19
-0.172378 -0.324314 -0.549903 126 17 19
-0.173501 -0.324883 -0.549129 128 20 19
-0.174482 -0.324950 -0.549215 128 20 19
-0.175463 -0.325018 -0.549300 128 20 19
-0.176592 -0.325587 -0.548527 130 22 21
-0.177575 -0.325655 -0.548612 128 26 18
-0.178558 -0.325723 -0.548698 139 37 29
-0.179541 -0.325791 -0.548783 163 93 52
-0.180679 -0.326360 -0.548010 159 89 48
-0.181663 -0.326428 -0.548096 156 94 48
-0.182648 -0.326496 -0.548182 153 91 45
-0.183633 -0.326564 -0.548267 150 88 42
-0.184778 -0.327134 -0.547495 147 85 39
-0.185764 -0.327202 -0.547581 149 84 39
-0.186751 -0.327270 -0.547667 151 86 41
-0.187737 -0.327338 -0.547753 152 87 42
-0.188890 -0.327909 -0.546981 151 86 41
-0.189878 -0.327977 -0.547067 151 89 43
-0.190866 -0.328046 -0.547153 153 91 45
-0.191854 -0.328114 -0.547239 146 98 54
-0.192842 -0.328182 -0.547325 172 124 80
-0.194005 -0.328753 -0.546555 158 135 87
-0.194995 -0.328822 -0.546641 162 139 91
-0.195985 -0.328890 -0.546727 158 139 92
-0.196974 -0.328958 -0.546813 158 139 92
-0.197964 -0.329027 -0.546899 179 135 103
-0.198953 -0.329095 -0.546985 104 60 28
-0.200128 -0.329667 -0.546216 131 37 31
-0.201119 -0.329735 -0.546302 131 37 31
-0.202111 -0.329804 -0.546388 131 30 29
-0.203102 -0.329872 -0.546474 128 27 26
-0.204093 -0.329941 -0.546561 132 26 24
-0.205084 -0.330009 -0.546647 133 27 25
-0.206271 -0.330582 -0.545878 132 26 22
-0.207263 -0.330651 -0.545965 134 28 24
-0.208256 -0.330719 -0.546051 133 30 25
-0.209249 -0.330788 -0.546137 135 32 27
-0.210242 -0.330856 -0.546224 120 29 22
-0.211438 -0.331430 -0.545456 163 72 65
-0.212432 -0.331499 -0.545543 168 133 105
-0.213427 -0.331567 -0.545629 173 138 110
-0.214630 -0.332141 -0.544862 163 149 116
-0.215626 -0.332210 -0.544949 165 151 118
-0.216622 -0.332279 -0.545035 160 150 118
-0.217618 -0.332348 -0.545122 157 147 115
-0.218614 -0.332416 -0.545209 155 125 89
-0.219610 -0.332485 -0.545295 144 114 78
-0.220824 -0.333060 -0.544529 153 101 61
-0.221822 -0.333129 -0.544616 151 99 59
-0.222820 -0.333198 -0.544703 151 91 51
-0.223818 -0.333267 -0.544790 150 90 50
-0.224815 -0.333336 -0.544876 150 90 50
-0.226040 -0.333911 -0.544111 150 90 50
-0.227039 -0.333980 -0.544198 154 94 52
-0.228038 -0.334049 -0.544285 156 96 54
-0.229269 -0.334625 -0.543521 155 97 52
-0.230270 -0.334694 -0.543608 158 100 55
-0.231505 -0.335270 -0.542843 158 106 56
-0.232744 -0.335847 -0.542080 157 105 55
-0.233749 -0.335916 -0.542167 157 107 57
-0.234992 -0.336493 -0.541403 159 109 59
-0.235998 -0.336563 -0.541491 158 111 60
-0.237004 -0.336632 -0.541578 161 114 63
-0.238010 -0.336702 -0.541666 158 116 63
-0.239016 -0.336771 -0.541753 155 113 60
-0.240022 -0.336840 -0.541841 158 105 60
-0.241277 -0.337418 -0.541078 162 109 64
-0.242285 -0.337488 -0.541166 117 30 15
-0.243545 -0.338066 -0.540404 123 36 21
-0.244554 -0.338135 -0.540492 126 31 25
-0.245563 -0.338205 -0.540580 126 31 25
-0.246572 -0.338275 -0.540667 123 27 24
-0.247841 -0.338853 -0.539906 123 27 24
-0.248852 -0.338923 -0.539994 121 26 25
-0.249862 -0.338993 -0.540082 121 26 25
-0.250873 -0.339063 -0.540170 121 26 25
-0.251884 -0.339132 -0.540258 121 26 25
-0.252895 -0.339202 -0.540346 121 26 25
-0.254175 -0.339782 -0.539585 121 26 25
-0.255187 -0.339852 -0.539673 119 27 25
-0.256472 -0.340431 -0.538914 120 28 26
-0.257486 -0.340501 -0.539002 119 27 25
-0.258500 -0.340571 -0.539090 118 26 24
-0.259514 -0.340641 -0.539178 118 26 24
-0.260528 -0.340711 -0.539266 118 26 24
-0.261823 -0.341292 -0.538507 116 27 24
-0.262839 -0.341362 -0.538596 115 26 23
-0.264138 -0.341943 -0.537837 115 28 26
-0.265155 -0.342013 -0.537926 115 28 26
-0.266173 -0.342083 -0.538014 112 28 25
-0.267479 -0.342664 -0.537256 112 28 25
-0.268788 -0.343246 -0.536498 112 28 25
-0.269809 -0.343316 -0.536587 112 28 25
-0.270829 -0.343387 -0.536676 111 27 24
-0.271850 -0.343457 -0.536765 110 26 23
-0.272871 -0.343528 -0.536853 110 27 24
-0.274190 -0.344110 -0.536096 111 28 25
-0.275512 -0.344692 -0.535340 109 29 25
-0.276536 -0.344763 -0.535429 109 29 25
-0.277863 -0.345345 -0.534673 107 29 27
-0.278279 -0.344392 -0.536452 108 30 28
-0.279302 -0.344463 -0.536541 107 33 34
-0.280324 -0.344533 -0.536630 109 35 36
-0.281036 -0.344091 -0.537564 96 42 45
-0.282057 -0.344162 -0.537653 106 52 55
-0.118295 -0.326580 -0.532481 90 88 80
-0.119246 -0.326156 -0.533437 101 103 94
-0.120195 -0.325732 -0.534392 103 105 96
-0.121194 -0.325801 -0.534479 104 101 87
-0.122137 -0.325376 -0.535433 106 103 89
-0.123020 -0.324458 -0.537255 107 61 45
-0.124014 -0.324527 -0.537342 100 54 38
-0.124826 -0.323114 -0.540030 106 34 30
-0.125815 -0.323182 -0.540116 90 18 14
-0.126548 -0.321275 -0.543669 89 17 15
-0.127729 -0.322825 -0.541155 88 16 14
-0.128716 -0.322893 -0.541241 89 16 12
-0.129635 -0.322467 -0.542193 90 17 13
-0.130622 -0.322535 -0.542279 93 17 14
-0.131608 -0.322603 -0.542365 93 17 14
-0.132520 -0.322177 -0.543316 94 16 14
-0.133429 -0.321750 -0.544268 95 17 15
-0.134412 -0.321818 -0.544354 99 21 19
-0.135316 -0.321390 -0.545305 102 24 22
-0.136297 -0.321458 -0.545390 104 23 24
-0.137279 -0.321526 -0.545475 103 22 23
-0.138176 -0.321098 -0.546426 103 22 23
-0.139156 -0.321166 -0.546511 103 22 23
-0.140136 -0.321234 -0.546597 105 21 23
-0.141115 -0.321301 -0.546682 105 21 23
-0.142095 -0.321369 -0.546767 106 21 21
-0.142983 -0.320941 -0.547717 106 21 21
-0.143961 -0.321008 -0.547802 107 23 20
-0.144939 -0.321076 -0.547887 106 22 19
-0.145917 -0.321143 -0.547972 109 22 20
-0.146895 -0.321211 -0.548057 110 23 21
-0.147873 -0.321278 -0.548142 113 25 26
-0.148851 -0.321346 -0.548227 112 24 25
-0.149829 -0.321413 -0.548312 138 56 62
-0.150807 -0.321481 -0.548397 123 41 47
-0.151785 -0.321548 -0.548482 112 39 42
-0.152764 -0.321616 -0.548568 116 43 46
-0.153742 -0.321683 -0.548653 112 35 39
-0.154720 -0.321751 -0.548738 109 32 36
-0.155698 -0.321819 -0.548823 113 28 35
-0.156676 -0.321886 -0.548908 113 28 35
-0.157537 -0.321456 -0.549855 119 26 31
-0.158514 -0.321523 -0.549940 118 25 30
-0.159490 -0.321591 -0.550025 121 25 29
-0.160467 -0.321658 -0.550110 121 25 29
-0.161443 -0.321726 -0.550195 121 25 26
-0.162544 -0.322291 -0.549418 121 25 26
-0.163522 -0.322359 -0.549503 121 25 22
-0.164501 -0.322426 -0.549589 122 26 23
-0.165479 -0.322494 -0.549674 163 69 58
-0.166588 -0.323060 -0.548898 116 22 11
-0.167568 -0.323128 -0.548983 125 19 17
-0.168548 -0.323195 -0.549068 123 17 15
-0.169527 -0.323263 -0.549153 126 18 17
-0.170645 -0.323830 -0.548378 126 18 17
-0.171626 -0.323897 -0.548463 126 17 19
-0.172608 -0.323965 -0.548549 126 17 19
-0.173732 -0.324532 -0.547774 128 20 19
-0.174715 -0.324600 -0.547860 128 20 19
-0.175698 -0.324668 -0.547945 129 21 18
-0.176681 -0.324736 -0.548031 130 22 19
-0.177813 -0.325304 -0.547257 124 27 13
-0.178798 -0.325372 -0.547342 150 53 39
-0.179783 -0.325440 -0.547428 154 87 45
-0.180922 -0.326008 -0.546654 155 88 46
-0.181908 -0.326076 -0.546740 156 91 46
-0.182894 -0.326144 -0.546826 154 89 44
-0.183881 -0.326212 -0.546912 151 86 41
-0.184867 -0.326280 -0.546998 149 84 39
-0.185853 -0.326348 -0.547083 148 83 38
-0.186839 -0.326417 -0.547169 149 84 39
-0.187992 -0.326986 -0.546397 152 87 42
-0.188979 -0.327054 -0.546483 151 86 41
-0.189967 -0.327122 -0.546569 151 89 43
-0.190955 -0.327190 -0.546655 156 94 48
-0.192116 -0.327760 -0.545883 156 115 68
-0.193105 -0.327828 -0.545969 165 124 77
-0.194095 -0.327897 -0.546055 159 135 90
-0.195084 -0.327965 -0.546141 162 138 93
-0.196074 -0.328033 -0.546228 162 141 97
-0.197244 -0.328604 -0.545457 156 135 91
-0.198235 -0.328672 -0.545543 150 89 63
-0.199226 -0.328740 -0.545629 115 54 28
-0.200218 -0.328809 -0.545715 132 34 29
-0.201209 -0.328877 -0.545802 131 33 28
-0.202389 -0.329448 -0.545032 133 29 29
-0.203381 -0.329517 -0.545118 131 27 27
-0.204374 -0.329585 -0.545205 133 27 25
-0.205367 -0.329654 -0.545291 134 28 26
-0.206360 -0.329723 -0.545377 134 28 24
-0.207353 -0.329791 -0.545464 135 29 25
-0.208346 -0.329860 -0.545550 132 32 26
-0.209338 -0.329928 -0.545636 136 36 30
-0.210331 -0.329997 -0.545723 111 32 19
-0.211324 -0.330065 -0.545809 194 115 102
-0.212317 -0.330134 -0.545895 163 136 103
-0.213517 -0.330706 -0.545127 167 140 107
-0.214720 -0.331279 -0.544359 161 146 109
-0.215716 -0.331348 -0.544446 161 146 109
-0.216712 -0.331416 -0.544533 161 145 111
-0.217708 -0.331485 -0.544619 155 139 105
-0.218704 -0.331554 -0.544706 145 104 65
-0.219917 -0.332127 -0.543939 144 103 64
-0.220914 -0.332196 -0.544026 150 89 52
-0.221912 -0.332265 -0.544113 144 83 46
-0.222910 -0.332334 -0.544199 147 79 44
-0.224131 -0.332908 -0.543433 148 80 45
-0.225130 -0.332977 -0.543520 149 81 48
-0.226356 -0.333551 -0.542754 152 84 51
-0.227357 -0.333620 -0.542841 152 89 48
-0.228358 -0.333689 -0.542928 154 91 50
-0.229359 -0.333758 -0.543015 153 95 50
-0.230593 -0.334333 -0.542250 157 99 54
-0.231596 -0.334402 -0.542337 158 103 57
-0.232835 -0.334978 -0.541573 155 100 54
-0.233839 -0.335047 -0.541660 156 101 55
-0.235083 -0.335622 -0.540896 159 104 58
-0.236089 -0.335692 -0.540983 158 108 58
-0.237095 -0.335761 -0.541071 162 112 62
-0.238101 -0.335831 -0.541158 160 115 63
-0.239353 -0.336407 -0.540395 160 115 63
-0.240360 -0.336476 -0.540482 165 110 66
-0.241617 -0.337053 -0.539719 134 79 35
-0.242627 -0.337122 -0.539807 124 34 22
-0.243636 -0.337192 -0.539895 125 35 23
-0.244645 -0.337262 -0.539983 127 32 26
-0.245654 -0.337331 -0.540070 126 31 25
-0.246921 -0.337908 -0.539308 125 29 26
-0.247932 -0.337978 -0.539396 125 29 26
-0.248943 -0.338048 -0.539484 125 29 26
-0.250216 -0.338625 -0.538722 125 29 26
-0.251228 -0.338695 -0.538810 123 27 24
-0.252241 -0.338765 -0.538898 125 29 26
-0.253253 -0.338835 -0.538986 122 27 24
-0.254266 -0.338905 -0.539074 122 27 24
-0.255549 -0.339483 -0.538314 122 27 24
-0.256563 -0.339553 -0.538402 122 27 24
-0.257851 -0.340132 -0.537641 120 28 24
-0.258867 -0.340202 -0.537730 119 27 23
-0.259883 -0.340272 -0.537818 117 28 23
-0.260899 -0.340342 -0.537906 117 28 23
-0.262195 -0.340921 -0.537147 117 28 25
-0.263212 -0.340992 -0.537235 117 28 25
-0.264514 -0.341571 -0.536476 116 29 27
-0.265533 -0.341641 -0.536565 114 27 25
-0.266552 -0.341712 -0.536653 112 28 28
-0.267859 -0.342292 -0.535894 110 26 26
-0.269170 -0.342872 -0.535136 107 26 27
-0.270193 -0.342942 -0.535225 109 28 29
-0.271215 -0.343013 -0.535314 111 27 27
-0.272237 -0.343083 -0.535403 110 26 26
-0.273260 -0.343154 -0.535492 111 27 27
-0.274581 -0.343735 -0.534734 111 27 27
-0.275905 -0.344316 -0.533977 109 29 25
-0.276930 -0.344387 -0.534066 110 30 26
-0.278259 -0.344968 -0.533309 106 30 27
-0.278676 -0.344018 -0.535090 108 32 29
-0.279700 -0.344088 -0.535179 108 35 36
-0.280724 -0.344159 -0.535269 110 37 38
-0.281748 -0.344230 -0.535358 96 44 51
-0.282772 -0.344300 -0.535447 117 65 72
-0.118385 -0.325712 -0.531975 88 89 80
-0.119337 -0.325289 -0.532932 96 97 91
-0.120338 -0.325358 -0.533019 104 105 99
-0.121339 -0.325428 -0.533106 111 108 94
-0.122284 -0.325005 -0.534061 116 113 99
-0.123225 -0.324581 -0.535017 98 49 37
-0.124163 -0.324158 -0.535971 96 47 35
-0.124976 -0.322750 -0.538662 104 31 27
-0.125967 -0.322818 -0.538748 92 19 15
-0.126701 -0.320916 -0.542306 90 17 15
-0.127950 -0.322955 -0.538921 90 17 15
-0.128873 -0.322531 -0.539875 90 17 13
-0.129793 -0.322106 -0.540828 90 17 13
-0.130781 -0.322174 -0.540914 93 17 14
-0.131769 -0.322242 -0.541000 93 17 14
-0.132683 -0.321817 -0.541953 96 15 14
-0.133518 -0.320899 -0.543772 97 16 15
-0.134501 -0.320967 -0.543858 101 20 19
-0.135404 -0.320541 -0.544810 102 21 20
-0.136386 -0.320609 -0.544895 102 21 20
-0.137367 -0.320676 -0.544980 102 21 20
-0.138264 -0.320250 -0.545932 104 20 20
-0.139244 -0.320318 -0.546017 104 20 20
-0.140224 -0.320385 -0.546102 104 20 20
-0.141204 -0.320453 -0.546187 104 20 20
-0.142183 -0.320521 -0.546273 105 20 20
-0.143163 -0.320588 -0.546358 105 20 20
-0.144049 -0.320161 -0.547308 106 22 19
-0.145027 -0.320229 -0.547393 105 21 18
-0.146005 -0.320296 -0.547478 108 21 19
-0.146983 -0.320364 -0.547563 109 22 20
-0.147961 -0.320432 -0.547649 111 22 21
-0.148939 -0.320499 -0.547734 115 26 25
-0.149917 -0.320567 -0.547819 118 28 30
-0.150895 -0.320634 -0.547904 116 26 28
-0.151874 -0.320702 -0.547989 117 27 29
-0.152852 -0.320769 -0.548074 117 27 29
-0.153830 -0.320837 -0.548159 116 26 30
-0.154808 -0.320904 -0.548244 115 25 29
-0.155786 -0.320972 -0.548329 117 24 29
-0.156764 -0.321039 -0.548414 117 24 29
-0.157742 -0.321107 -0.548499 119 23 27
-0.158720 -0.321174 -0.548584 118 22 26
-0.159698 -0.321242 -0.548670 121 22 22
-0.160676 -0.321309 -0.548755 121 22 22
-0.161654 -0.321377 -0.548840 121 22 22
-0.162633 -0.321444 -0.548925 121 22 22
-0.163611 -0.321512 -0.549010 122 24 19
-0.164589 -0.321580 -0.549095 122 24 19
-0.165567 -0.321647 -0.549180 164 72 54
-0.166676 -0.322212 -0.548403 127 35 17
-0.167656 -0.322279 -0.548488 124 22 12
-0.168636 -0.322347 -0.548574 123 21 11
-0.169616 -0.322415 -0.548659 125 19 15
-0.170733 -0.322980 -0.547883 126 20 16
-0.171715 -0.323048 -0.547968 126 18 17
-0.172696 -0.323116 -0.548054 126 18 17
-0.173821 -0.323681 -0.547278 128 20 19
-0.174804 -0.323749 -0.547363 128 20 19
-0.175787 -0.323817 -0.547449 129 21 18
-0.176770 -0.323885 -0.547535 131 23 20
-0.177902 -0.324451 -0.546760 122 30 12
-0.178887 -0.324519 -0.546845 169 77 59
-0.179871 -0.324587 -0.546931 153 87 42
-0.181011 -0.325154 -0.546157 154 88 43
-0.181997 -0.325222 -0.546243 154 89 44
-0.182983 -0.325290 -0.546328 152 87 42
-0.183969 -0.325358 -0.546414 149 84 39
-0.184956 -0.325426 -0.546500 149 84 39
-0.186105 -0.325994 -0.545727 149 83 38
-0.187093 -0.326062 -0.545812 150 84 39
-0.188081 -0.326130 -0.545898 151 86 41
-0.189068 -0.326199 -0.545984 152 87 42
-0.190056 -0.326267 -0.546070 150 90 46
-0.191215 -0.326835 -0.545298 156 96 52
-0.192205 -0.326903 -0.545384 159 122 79
-0.193194 -0.326972 -0.545470 163 126 83
-0.194360 -0.327540 -0.544698 158 137 91
-0.195351 -0.327609 -0.544784 160 139 93
-0.196342 -0.327677 -0.544870 172 148 107
-0.197333 -0.327745 -0.544957 138 114 73
-0.198324 -0.327814 -0.545043 127 46 31
-0.199500 -0.328383 -0.544272 125 44 29
-0.200492 -0.328452 -0.544358 132 32 28
-0.201485 -0.328520 -0.544444 131 31 27
-0.202478 -0.328589 -0.544531 132 29 26
-0.203471 -0.328657 -0.544617 130 27 24
-0.204464 -0.328726 -0.544704 133 27 23
-0.205457 -0.328795 -0.544790 134 28 24
-0.206449 -0.328863 -0.544876 134 28 24
-0.207442 -0.328932 -0.544963 137 31 27
