ply
format ascii 1.0
element vertex 1217
property float x
property float y
property float z
property uchar red
property uchar green
property uchar blue
end_header
-0.104716 -0.304341 -0.590220 73 16 7
-0.103291 -0.304022 -0.590066 72 15 6
-0.102288 -0.304053 -0.590767 66 17 7
-0.101284 -0.304085 -0.591469 66 17 7
-0.102778 -0.306215 -0.597327 65 18 7
-0.101767 -0.306247 -0.598035 65 18 7
-0.100755 -0.306278 -0.598742 66 17 7
-0.099744 -0.306310 -0.599449 67 18 8
-0.096267 -0.304240 -0.594976 71 19 10
-0.098130 -0.306722 -0.601728 72 20 11
-0.092627 -0.302902 -0.592919 80 19 13
-0.091629 -0.302933 -0.593616 80 19 13
-0.090631 -0.302964 -0.594314 83 19 14
-0.090037 -0.303345 -0.595880 83 19 14
-0.089440 -0.303726 -0.597448 84 20 15
-0.089242 -0.304458 -0.599887 85 21 16
-0.093440 -0.309045 -0.611910 86 22 17
-0.093217 -0.309778 -0.614367 89 25 20
-0.092988 -0.310511 -0.616829 89 27 24
-0.092357 -0.310893 -0.618420 97 35 32
-0.092119 -0.311626 -0.620888 105 58 57
-0.091875 -0.312359 -0.623359 116 69 68
-0.092802 -0.314145 -0.628464 137 119 110
-0.092543 -0.314879 -0.630946 137 119 110
-0.091890 -0.315262 -0.632554 133 124 115
-0.091622 -0.315996 -0.635042 135 126 117
-0.091735 -0.317081 -0.638415 135 128 118
-0.091069 -0.317464 -0.640031 137 130 120
-0.090785 -0.318199 -0.642531 135 131 122
-0.089348 -0.317881 -0.642385 137 133 124
-0.089057 -0.318615 -0.644890 141 137 128
-0.088760 -0.319350 -0.647398 146 142 133
-0.088458 -0.320085 -0.649910 149 145 136
-0.088905 -0.321523 -0.654200 149 145 136
-0.090845 -0.324366 -0.662049 118 107 102
-0.090890 -0.325453 -0.665469 118 107 102
-0.242852 -0.326789 -0.582963 71 45 45
-0.241194 -0.326479 -0.582970 89 28 31
-0.239539 -0.326169 -0.582976 88 27 30
-0.237886 -0.325859 -0.582980 93 24 19
-0.232421 -0.323137 -0.577588 92 23 18
-0.230784 -0.322826 -0.577582 92 20 16
-0.229691 -0.322860 -0.578346 92 20 16
-0.228599 -0.322894 -0.579110 89 20 15
-0.226966 -0.322584 -0.579099 89 20 15
-0.225337 -0.322273 -0.579087 90 22 14
-0.224247 -0.322306 -0.579849 90 22 14
-0.223157 -0.322340 -0.580611 92 24 14
-0.221533 -0.322029 -0.580595 93 25 15
-0.220444 -0.322063 -0.581356 96 43 8
-0.218824 -0.321752 -0.581337 141 88 53
-0.217207 -0.321441 -0.581316 125 91 40
-0.216121 -0.321474 -0.582075 91 57 6
-0.214508 -0.321163 -0.582052 96 62 27
-0.210793 -0.319471 -0.578892 100 66 31
-0.209190 -0.319160 -0.578861 104 73 44
-0.208114 -0.319193 -0.579613 84 53 24
-0.207038 -0.319226 -0.580366 100 69 40
-0.205441 -0.318915 -0.580331 112 81 52
-0.203846 -0.318603 -0.580294 89 59 27
-0.202772 -0.318636 -0.581044 89 59 27
-0.201182 -0.318324 -0.581005 104 77 44
-0.199594 -0.318012 -0.580963 94 67 34
-0.198010 -0.317699 -0.580920 116 85 44
-0.196427 -0.317387 -0.580875 118 87 46
-0.195359 -0.317420 -0.581621 118 87 33
-0.193781 -0.317108 -0.581573 128 97 43
-0.192205 -0.316795 -0.581523 69 24 0
-0.191140 -0.316828 -0.582268 73 28 0
-0.190074 -0.316861 -0.583013 80 22 10
-0.188504 -0.316549 -0.582959 80 22 10
-0.186937 -0.316236 -0.582904 83 20 10
-0.185372 -0.315923 -0.582846 83 20 10
-0.183810 -0.315610 -0.582787 84 21 11
-0.182750 -0.315643 -0.583528 84 21 11
-0.181192 -0.315330 -0.583466 84 21 11
-0.179637 -0.315017 -0.583401 84 21 11
-0.178579 -0.315050 -0.584141 87 22 11
-0.177028 -0.314736 -0.584074 88 23 12
-0.175972 -0.314769 -0.584812 96 29 12
-0.174916 -0.314802 -0.585550 101 34 17
-0.173370 -0.314488 -0.585480 102 36 14
-0.171827 -0.314175 -0.585407 106 40 18
-0.170774 -0.314208 -0.586143 120 63 29
-0.169235 -0.313894 -0.586068 120 63 29
-0.167698 -0.313580 -0.585990 119 63 26
-0.166165 -0.313266 -0.585911 113 57 20
-0.164634 -0.312953 -0.585830 110 46 12
-0.163586 -0.312985 -0.586563 108 44 10
-0.162538 -0.313018 -0.587295 109 40 10
-0.161012 -0.312703 -0.587210 107 38 8
-0.159489 -0.312389 -0.587124 110 42 12
-0.157969 -0.312075 -0.587035 113 45 15
-0.156452 -0.311761 -0.586944 109 44 15
-0.155409 -0.311793 -0.587673 102 37 8
-0.153896 -0.311479 -0.587580 99 30 7
-0.152855 -0.311511 -0.588308 101 32 9
-0.151345 -0.311196 -0.588211 103 34 13
-0.149839 -0.310882 -0.588113 108 39 18
-0.148335 -0.310567 -0.588013 102 36 14
-0.146834 -0.310252 -0.587911 99 33 11
-0.145798 -0.310284 -0.588635 100 34 14
-0.144762 -0.310316 -0.589359 99 33 13
-0.143266 -0.310001 -0.589254 91 32 12
-0.141773 -0.309686 -0.589146 85 26 6
-0.140283 -0.309371 -0.589037 80 22 8
-0.139251 -0.309403 -0.589758 79 21 7
-0.137764 -0.309088 -0.589646 75 19 7
-0.136281 -0.308773 -0.589531 75 19 7
-0.135252 -0.308804 -0.590251 75 18 9
-0.134222 -0.308836 -0.590970 75 18 9
-0.129600 -0.306089 -0.584990 77 21 9
-0.131716 -0.308553 -0.591571 77 21 9
-0.127117 -0.305804 -0.585574 80 22 8
-0.126100 -0.305836 -0.586285 87 29 15
-0.124640 -0.305520 -0.586155 107 52 19
-0.123182 -0.305204 -0.586023 114 59 26
-0.122167 -0.305235 -0.586732 117 64 19
-0.123791 -0.307353 -0.592506 117 64 19
-0.119701 -0.304950 -0.587305 119 66 19
-0.118251 -0.304634 -0.587167 118 65 18
-0.117239 -0.304665 -0.587875 117 64 17
-0.115793 -0.304349 -0.587734 116 63 16
-0.114350 -0.304032 -0.587591 114 63 16
-0.113341 -0.304063 -0.588297 112 61 14
-0.111902 -0.303746 -0.588151 109 48 13
-0.110895 -0.303778 -0.588856 104 43 8
-0.109460 -0.303461 -0.588707 103 38 11
-0.108027 -0.303144 -0.588557 99 34 7
-0.107023 -0.303175 -0.589260 84 21 7
-0.106018 -0.303206 -0.589962 80 17 3
-0.105013 -0.303237 -0.590665 73 16 7
-0.104008 -0.303269 -0.591367 72 15 6
-0.102584 -0.302951 -0.591211 66 17 7
-0.101581 -0.302982 -0.591913 66 17 7
-0.100577 -0.303014 -0.592615 65 18 7
-0.099574 -0.303045 -0.593316 65 18 7
-0.098570 -0.303076 -0.594018 67 18 8
-0.097567 -0.303107 -0.594719 67 18 8
-0.096563 -0.303138 -0.595421 72 18 10
-0.095970 -0.303518 -0.596987 73 19 11
-0.097416 -0.305641 -0.602884 80 19 13
-0.096811 -0.306022 -0.604459 80 19 13
-0.091332 -0.302216 -0.595624 83 19 14
-0.090737 -0.302596 -0.597191 84 20 15
-0.090139 -0.302976 -0.598760 84 20 15
-0.094361 -0.307543 -0.610778 85 21 16
-0.093742 -0.307924 -0.612362 86 22 17
-0.093519 -0.308653 -0.614821 89 25 20
-0.093291 -0.309383 -0.617283 90 28 25
-0.092661 -0.309764 -0.618875 98 36 33
-0.092819 -0.310843 -0.622219 106 59 58
-0.092180 -0.311225 -0.623817 120 73 72
-0.092324 -0.312304 -0.627170 136 121 111
-0.092460 -0.313384 -0.630530 135 120 110
-0.092198 -0.314115 -0.633016 133 124 115
-0.091931 -0.314846 -0.635506 136 127 118
-0.091658 -0.315578 -0.637999 136 129 119
-0.091380 -0.316309 -0.640497 138 131 121
-0.091097 -0.317041 -0.642998 136 132 123
-0.089659 -0.316724 -0.642851 139 135 126
-0.088987 -0.317106 -0.644473 141 137 128
-0.088693 -0.317838 -0.646981 146 142 133
-0.088014 -0.318220 -0.648607 150 143 135
-0.090731 -0.321750 -0.658223 151 144 136
-0.090787 -0.322832 -0.661638 116 102 98
-0.090835 -0.323915 -0.665058 126 112 108
-0.243179 -0.325571 -0.583454 69 46 45
-0.241521 -0.325263 -0.583461 89 28 31
-0.239865 -0.324954 -0.583466 88 27 30
-0.238212 -0.324645 -0.583469 93 24 19
-0.236562 -0.324337 -0.583470 92 23 18
-0.231106 -0.321626 -0.578066 92 20 16
-0.230014 -0.321660 -0.578830 92 20 16
-0.228380 -0.321351 -0.578820 91 19 15
-0.227289 -0.321385 -0.579582 91 19 15
-0.225659 -0.321076 -0.579570 91 20 13
-0.224569 -0.321109 -0.580332 92 21 14
-0.222943 -0.320800 -0.580316 90 22 12
-0.221854 -0.320834 -0.581077 93 25 15
-0.220766 -0.320867 -0.581838 88 35 0
-0.219146 -0.320558 -0.581818 139 86 51
-0.217528 -0.320248 -0.581797 123 90 34
-0.216442 -0.320282 -0.582556 105 72 16
-0.214828 -0.319972 -0.582532 98 62 25
-0.215323 -0.321036 -0.585643 103 67 30
-0.212134 -0.319696 -0.583263 108 76 44
-0.211051 -0.319729 -0.584020 89 57 25
-0.209445 -0.319419 -0.583991 102 70 38
-0.205758 -0.317734 -0.580807 113 81 49
-0.204163 -0.317423 -0.580769 88 56 22
-0.203090 -0.317457 -0.581520 89 57 23
-0.201499 -0.317146 -0.581480 101 71 39
-0.199911 -0.316835 -0.581438 94 64 32
-0.198326 -0.316525 -0.581394 97 64 24
-0.196743 -0.316214 -0.581348 123 90 50
-0.195163 -0.315903 -0.581300 121 88 32
-0.194096 -0.315936 -0.582046 124 91 35
-0.193029 -0.315969 -0.582792 79 34 0
-0.191455 -0.315658 -0.582740 72 27 0
-0.189883 -0.315347 -0.582687 80 22 10
-0.188314 -0.315036 -0.582631 80 22 10
-0.187251 -0.315069 -0.583374 83 20 10
-0.185686 -0.314757 -0.583316 83 20 10
-0.184624 -0.314790 -0.584058 83 20 10
-0.183063 -0.314479 -0.583997 84 21 11
-0.181505 -0.314167 -0.583934 84 21 11
-0.180446 -0.314200 -0.584675 83 20 10
-0.178892 -0.313888 -0.584609 85 22 12
-0.177834 -0.313921 -0.585348 85 22 12
-0.176284 -0.313609 -0.585280 88 23 12
-0.174736 -0.313297 -0.585209 92 27 16
-0.173682 -0.313330 -0.585947 95 31 13
-0.172138 -0.313018 -0.585873 99 35 17
-0.171085 -0.313051 -0.586610 121 61 30
-0.169545 -0.312738 -0.586534 121 61 30
-0.168009 -0.312426 -0.586456 118 62 25
-0.166958 -0.312459 -0.587190 113 57 20
-0.165425 -0.312146 -0.587109 110 46 12
-0.163895 -0.311834 -0.587027 108 44 10
-0.162368 -0.311521 -0.586942 109 40 10
-0.161321 -0.311554 -0.587674 107 38 8
-0.160275 -0.311586 -0.588406 110 42 12
-0.158753 -0.311274 -0.588317 112 44 14
-0.157234 -0.310961 -0.588227 110 45 16
-0.155717 -0.310648 -0.588135 107 42 13
-0.154203 -0.310335 -0.588041 99 34 7
-0.153162 -0.310367 -0.588769 97 32 5
-0.151652 -0.310054 -0.588672 100 34 12
-0.150145 -0.309741 -0.588573 106 40 18
-0.149107 -0.309773 -0.589299 103 37 15
-0.147604 -0.309460 -0.589197 99 33 11
-0.146104 -0.309147 -0.589094 94 33 11
-0.144606 -0.308833 -0.588989 91 30 8
-0.143572 -0.308865 -0.589712 83 25 9
-0.142537 -0.308897 -0.590435 81 23 7
-0.141045 -0.308584 -0.590326 75 19 7
-0.139556 -0.308270 -0.590215 74 18 6
-0.138524 -0.308302 -0.590936 72 18 8
-0.137038 -0.307988 -0.590822 72 18 8
-0.135556 -0.307674 -0.590707 72 18 8
-0.134526 -0.307706 -0.591426 73 19 9
-0.133048 -0.307392 -0.591307 73 19 9
-0.132020 -0.307424 -0.592026 75 21 11
-0.130992 -0.307456 -0.592745 81 23 9
-0.126846 -0.305065 -0.587577 89 31 17
-0.125384 -0.304750 -0.587447 111 57 19
-0.123924 -0.304436 -0.587315 114 60 22
-0.122467 -0.304121 -0.587181 117 64 19
-0.124533 -0.306576 -0.593803 117 64 19
-0.120000 -0.303838 -0.587754 118 65 18
-0.118550 -0.303523 -0.587615 118 65 18
-0.117538 -0.303554 -0.588323 117 64 17
-0.116092 -0.303239 -0.588181 116 63 16
-0.114648 -0.302924 -0.588038 116 63 16
-0.113639 -0.302955 -0.588743 114 61 14
-0.112200 -0.302640 -0.588597 109 48 11
-0.111192 -0.302671 -0.589302 105 44 7
-0.109757 -0.302356 -0.589153 104 39 10
-0.108751 -0.302387 -0.589856 101 36 7
-0.107745 -0.302418 -0.590560 86 21 8
-0.106315 -0.302103 -0.590407 81 16 3
-0.105310 -0.302134 -0.591110 73 16 7
-0.104305 -0.302165 -0.591812 72 15 6
-0.103300 -0.302196 -0.592515 66 17 7
-0.102295 -0.302227 -0.593217 66 17 7
-0.101291 -0.302258 -0.593920 66 17 7
-0.100286 -0.302290 -0.594622 66 17 7
-0.099281 -0.302321 -0.595325 67 18 8
-0.098276 -0.302352 -0.596027 68 19 9
-0.097271 -0.302383 -0.596730 72 18 10
-0.096267 -0.302414 -0.597432 73 19 11
-0.098125 -0.304876 -0.604199 80 19 11
-0.097110 -0.304908 -0.604908 80 19 11
-0.096502 -0.305286 -0.606486 83 19 12
-0.095892 -0.305665 -0.608065 84 20 13
-0.094875 -0.305697 -0.608776 85 21 14
-0.094662 -0.306423 -0.611229 85 21 14
-0.094044 -0.306802 -0.612814 86 22 15
-0.093822 -0.307529 -0.615274 89 25 18
-0.093594 -0.308256 -0.617738 90 28 25
-0.092965 -0.308635 -0.619330 99 37 34
-0.092728 -0.309363 -0.621800 109 62 61
-0.092486 -0.310090 -0.624274 122 75 74
-0.092631 -0.311165 -0.627630 136 121 111
-0.091985 -0.311545 -0.629234 136 121 111
-0.091337 -0.311925 -0.630839 132 125 115
-0.092240 -0.313697 -0.635969 135 128 118
-0.091968 -0.314425 -0.638464 136 129 119
-0.090533 -0.314110 -0.638315 138 131 121
-0.089870 -0.314490 -0.639931 139 132 124
-0.089587 -0.315219 -0.642433 141 134 126
-0.088917 -0.315599 -0.644054 141 137 128
-0.089386 -0.317025 -0.648336 144 140 131
-0.088706 -0.317406 -0.649963 148 141 133
-0.088402 -0.318135 -0.652481 148 141 133
-0.090728 -0.321302 -0.661225 114 97 97
-0.242956 -0.324012 -0.583177 68 47 46
-0.241848 -0.324046 -0.583951 89 28 31
-0.240192 -0.323739 -0.583955 88 27 30
-0.238539 -0.323432 -0.583958 93 24 19
-0.237434 -0.323466 -0.584730 92 23 18
-0.235785 -0.323159 -0.584730 92 20 16
-0.234138 -0.322852 -0.584728 92 20 16
-0.232495 -0.322544 -0.584724 92 21 14
-0.227611 -0.320186 -0.580066 91 20 13
-0.225981 -0.319879 -0.580052 91 20 13
-0.224891 -0.319912 -0.580814 92 21 14
-0.223801 -0.319946 -0.581576 92 21 12
-0.222711 -0.319980 -0.582338 94 23 14
-0.221088 -0.319672 -0.582320 89 34 1
-0.219467 -0.319364 -0.582300 141 86 53
-0.218379 -0.319397 -0.583060 122 87 32
-0.216763 -0.319089 -0.583037 114 79 24
-0.215149 -0.318781 -0.583012 98 62 23
-0.214064 -0.318814 -0.583770 105 69 30
-0.212454 -0.318506 -0.583743 107 73 40
-0.211371 -0.318540 -0.584500 88 54 21
-0.209765 -0.318231 -0.584470 104 70 37
-0.208683 -0.318264 -0.585226 112 78 45
-0.208642 -0.318983 -0.587561 90 56 21
-0.207038 -0.318674 -0.587529 94 60 25
-0.205438 -0.318365 -0.587495 99 67 33
-0.200227 -0.315659 -0.581912 103 71 37
-0.198642 -0.315350 -0.581867 83 47 8
-0.197058 -0.315041 -0.581821 127 91 52
-0.195990 -0.315074 -0.582568 120 87 31
-0.194411 -0.314764 -0.582518 124 91 35
-0.193344 -0.314797 -0.583264 88 43 7
-0.191769 -0.314488 -0.583212 69 24 0
-0.190197 -0.314178 -0.583158 80 20 9
-0.188628 -0.313868 -0.583102 80 20 9
-0.187061 -0.313558 -0.583044 83 19 12
-0.185999 -0.313591 -0.583786 83 19 12
-0.184436 -0.313281 -0.583726 83 20 10
-0.183376 -0.313314 -0.584467 83 20 10
-0.181818 -0.313004 -0.584403 83 20 10
-0.180759 -0.313037 -0.585144 83 20 10
-0.179204 -0.312727 -0.585077 84 21 11
-0.178147 -0.312760 -0.585816 84 21 11
-0.176596 -0.312449 -0.585747 84 21 11
-0.175048 -0.312139 -0.585676 86 23 13
-0.173993 -0.312171 -0.586414 91 27 11
-0.172449 -0.311861 -0.586340 95 31 15
-0.171396 -0.311894 -0.587076 115 53 25
-0.169856 -0.311583 -0.587000 118 56 28
-0.168319 -0.311272 -0.586921 118 59 23
-0.167268 -0.311305 -0.587656 114 55 19
-0.165735 -0.310994 -0.587574 110 46 12
-0.164205 -0.310683 -0.587491 108 44 10
-0.163157 -0.310715 -0.588223 108 40 10
-0.161631 -0.310404 -0.588137 106 38 8
-0.160107 -0.310093 -0.588049 111 42 12
-0.158586 -0.309782 -0.587959 113 44 14
-0.157542 -0.309814 -0.588689 110 45 14
-0.156498 -0.309847 -0.589419 110 45 14
-0.154983 -0.309535 -0.589325 103 38 11
-0.153470 -0.309224 -0.589230 97 32 5
-0.152428 -0.309256 -0.589958 99 33 9
-0.150920 -0.308944 -0.589859 102 36 12
-0.149414 -0.308633 -0.589759 100 37 14
-0.147910 -0.308321 -0.589657 95 32 9
-0.146873 -0.308353 -0.590382 88 31 12
-0.145374 -0.308041 -0.590277 82 25 6
-0.143877 -0.307729 -0.590170 75 22 9
-0.142843 -0.307761 -0.590893 73 20 7
-0.141350 -0.307449 -0.590783 71 19 8
-0.140317 -0.307481 -0.591506 71 19 8
-0.138828 -0.307169 -0.591393 71 19 8
-0.137343 -0.306856 -0.591279 70 18 7
-0.135860 -0.306544 -0.591162 70 18 7
-0.134830 -0.306576 -0.591882 71 19 8
-0.133801 -0.306608 -0.592601 73 19 9
-0.132772 -0.306640 -0.593321 75 21 11
-0.131296 -0.306327 -0.593200 84 24 9
-0.129822 -0.306014 -0.593077 97 37 22
-0.128796 -0.306046 -0.593794 111 57 17
-0.124224 -0.303320 -0.587765 115 61 21
-0.122767 -0.303007 -0.587630 117 64 19
-0.124836 -0.305452 -0.594256 117 64 19
-0.120299 -0.302725 -0.588202 118 65 18
-0.118848 -0.302412 -0.588063 118 65 18
-0.117837 -0.302443 -0.588770 117 64 17
-0.116390 -0.302129 -0.588629 116 63 16
-0.114946 -0.301816 -0.588485 116 63 16
-0.113937 -0.301847 -0.589190 112 59 12
-0.112498 -0.301533 -0.589044 109 48 11
-0.111490 -0.301565 -0.589748 106 45 8
-0.110054 -0.301251 -0.589599 104 39 10
-0.109048 -0.301282 -0.590302 102 37 8
-0.108042 -0.301313 -0.591005 86 22 6
-0.107036 -0.301344 -0.591709 81 17 1
-0.106030 -0.301376 -0.592412 73 17 5
-0.104602 -0.301061 -0.592257 72 16 4
-0.103597 -0.301093 -0.592960 66 17 7
-0.102592 -0.301124 -0.593662 66 17 7
-0.101587 -0.301155 -0.594365 66 17 7
-0.100583 -0.301186 -0.595067 66 17 7
-0.099578 -0.301217 -0.595769 67 18 8
-0.098573 -0.301248 -0.596472 68 19 9
-0.097568 -0.301280 -0.597174 72 18 10
-0.096974 -0.301656 -0.598743 73 19 11
-0.098424 -0.303762 -0.604648 80 19 11
-0.097818 -0.304139 -0.606225 81 20 12
-0.096802 -0.304171 -0.606935 83 19 12
-0.096192 -0.304548 -0.608515 84 20 13
-0.095579 -0.304926 -0.610097 85 21 14
-0.094964 -0.305303 -0.611681 86 22 15
-0.094746 -0.306027 -0.614139 87 23 16
-0.094524 -0.306751 -0.616601 89 25 18
-0.093499 -0.306782 -0.617318 92 27 25
-0.093268 -0.307507 -0.619785 99 34 32
-0.093428 -0.308577 -0.623133 107 63 61
-0.092791 -0.308955 -0.624732 121 77 75
-0.092544 -0.309680 -0.627211 135 122 111
-0.091900 -0.310058 -0.628814 137 124 113
-0.091644 -0.310783 -0.631300 134 127 117
-0.091382 -0.311508 -0.633789 136 129 119
-0.091115 -0.312233 -0.636282 136 129 121
-0.090843 -0.312959 -0.638779 138 131 123
-0.090180 -0.313338 -0.640396 139 132 124
-0.090281 -0.314410 -0.643784 141 134 126
-0.089610 -0.314789 -0.645407 141 137 130
-0.088937 -0.315168 -0.647031 143 139 132
-0.088640 -0.315894 -0.649545 144 135 128
-0.087959 -0.316274 -0.651174 136 127 120
-0.090669 -0.319774 -0.660812 115 95 96
-0.243283 -0.322796 -0.583667 70 49 46
-0.241625 -0.322490 -0.583672 89 28 31
-0.239970 -0.322184 -0.583675 88 27 30
-0.238865 -0.322219 -0.584447 93 24 19
-0.237760 -0.322253 -0.585220 92 23 18
-0.236111 -0.321947 -0.585219 92 20 16
-0.235007 -0.321981 -0.585990 92 20 16
-0.233362 -0.321675 -0.585986 91 20 13
-0.231719 -0.321369 -0.585981 91 20 13
-0.230079 -0.321063 -0.585973 91 20 13
-0.228980 -0.321097 -0.586742 91 20 13
-0.223586 -0.318409 -0.581280 92 21 14
-0.222498 -0.318443 -0.582041 95 24 17
-0.221409 -0.318476 -0.582802 87 30 0
-0.220321 -0.318510 -0.583563 141 84 54
-0.218701 -0.318203 -0.583541 122 87 30
-0.217083 -0.317897 -0.583518 117 82 25
-0.215998 -0.317930 -0.584277 98 63 17
-0.214384 -0.317623 -0.584251 105 70 24
-0.212774 -0.317316 -0.584222 106 70 33
-0.211691 -0.317350 -0.584980 96 60 23
-0.210085 -0.317043 -0.584949 102 65 31
-0.208481 -0.316735 -0.584916 109 72 38
-0.206880 -0.316428 -0.584881 95 58 24
-0.207877 -0.317825 -0.588800 98 61 27
-0.206275 -0.317518 -0.588766 97 63 28
-0.204676 -0.317211 -0.588730 107 73 38
-0.203079 -0.316903 -0.588692 80 44 5
-0.201484 -0.316596 -0.588653 112 76 37
-0.199893 -0.316288 -0.588611 121 86 31
-0.198815 -0.316321 -0.589365 124 89 34
-0.197228 -0.316014 -0.589321 100 57 18
-0.191576 -0.312976 -0.582885 66 23 0
-0.190004 -0.312668 -0.582830 80 20 7
-0.188942 -0.312701 -0.583573 80 20 7
-0.187374 -0.312392 -0.583514 82 18 11
-0.186313 -0.312425 -0.584256 82 18 11
-0.184750 -0.312117 -0.584195 82 19 9
-0.183689 -0.312150 -0.584936 83 20 10
-0.182130 -0.311841 -0.584872 83 20 10
-0.180574 -0.311533 -0.584806 83 20 10
-0.179516 -0.311565 -0.585545 83 20 10
-0.177964 -0.311256 -0.585477 84 21 11
-0.176908 -0.311289 -0.586215 83 20 10
-0.175360 -0.310980 -0.586143 84 21 11
-0.174305 -0.311013 -0.586881 86 21 10
-0.172761 -0.310704 -0.586806 91 26 15
-0.171219 -0.310395 -0.586730 103 37 17
-0.170167 -0.310427 -0.587465 110 44 24
-0.168629 -0.310118 -0.587386 113 48 17
-0.167579 -0.310151 -0.588121 115 50 19
-0.166045 -0.309841 -0.588039 110 46 12
-0.164996 -0.309874 -0.588772 108 44 10
-0.163466 -0.309564 -0.588688 108 41 8
-0.161940 -0.309255 -0.588601 108 41 8
-0.160893 -0.309287 -0.589333 109 42 9
-0.159370 -0.308977 -0.589243 111 44 11
-0.157850 -0.308668 -0.589151 110 46 12
-0.156333 -0.308358 -0.589058 110 46 12
-0.154819 -0.308048 -0.588963 106 44 14
-0.153777 -0.308080 -0.589691 98 36 6
-0.152736 -0.308112 -0.590419 95 32 9
-0.151227 -0.307802 -0.590320 97 34 11
-0.150187 -0.307834 -0.591047 90 34 10
-0.148682 -0.307524 -0.590945 88 32 8
-0.147180 -0.307214 -0.590841 77 26 10
-0.146142 -0.307246 -0.591566 74 23 7
-0.144644 -0.306935 -0.591460 69 20 8
-0.143148 -0.306625 -0.591351 68 19 7
-0.141655 -0.306314 -0.591241 68 19 7
-0.140622 -0.306346 -0.591963 68 19 7
-0.139133 -0.306035 -0.591850 68 19 7
-0.137647 -0.305725 -0.591735 68 19 7
-0.136164 -0.305414 -0.591618 68 19 7
-0.135586 -0.305788 -0.593176 69 20 8
-0.134105 -0.305477 -0.593057 72 20 9
-0.133076 -0.305509 -0.593776 74 22 11
-0.131600 -0.305198 -0.593655 85 26 6
-0.130572 -0.305230 -0.594373 103 44 24
-0.129099 -0.304919 -0.594249 111 57 17
-0.127629 -0.304607 -0.594122 114 60 20
-0.126162 -0.304296 -0.593994 116 63 18
-0.124697 -0.303984 -0.593864 117 64 19
-0.123675 -0.304016 -0.594579 117 64 17
-0.122214 -0.303704 -0.594446 117 64 17
-0.121193 -0.303736 -0.595159 117 64 17
-0.116689 -0.301020 -0.589076 116 63 16
-0.115678 -0.301051 -0.589782 115 62 15
-0.114235 -0.300739 -0.589637 111 58 11
-0.112795 -0.300427 -0.589490 109 49 9
-0.111788 -0.300458 -0.590194 107 47 7
-0.110351 -0.300146 -0.590044 106 41 12
-0.109345 -0.300177 -0.590747 103 38 9
-0.108339 -0.300208 -0.591451 88 24 8
-0.107333 -0.300239 -0.592154 81 17 1
-0.106327 -0.300270 -0.592858 73 17 5
-0.105321 -0.300302 -0.593561 72 16 4
-0.103894 -0.299989 -0.593405 67 18 6
-0.102889 -0.300020 -0.594107 66 17 5
-0.101884 -0.300051 -0.594809 66 17 7
-0.100879 -0.300082 -0.595512 67 18 8
-0.099875 -0.300114 -0.596214 67 18 8
-0.098870 -0.300145 -0.596917 68 19 9
-0.097865 -0.300176 -0.597619 71 19 10
-0.097271 -0.300551 -0.599189 72 20 11
-0.096675 -0.300927 -0.600760 80 19 11
-0.098118 -0.303024 -0.606675 81 20 12
-0.097102 -0.303055 -0.607385 83 19 12
-0.096493 -0.303431 -0.608966 83 19 12
-0.095880 -0.303807 -0.610548 86 20 14
-0.095668 -0.304528 -0.613005 87 21 15
-0.095048 -0.304904 -0.614592 87 21 15
-0.094426 -0.305280 -0.616181 90 24 18
-0.094201 -0.306001 -0.618647 93 28 26
-0.093970 -0.306722 -0.621116 100 35 33
-0.093337 -0.307099 -0.622713 107 63 61
-0.093096 -0.307820 -0.625189 128 84 82
-0.092850 -0.308542 -0.627669 132 119 108
-0.093383 -0.309953 -0.631913 137 124 113
-0.092733 -0.310331 -0.633522 134 127 117
-0.092469 -0.311053 -0.636014 136 129 119
-0.091036 -0.310740 -0.635862 137 130 122
-0.091152 -0.311807 -0.639243 137 130 122
-0.090490 -0.312185 -0.640861 137 133 124
-0.090209 -0.312908 -0.643365 139 135 126
-0.089539 -0.313285 -0.644987 141 137 128
-0.088867 -0.313663 -0.646611 140 136 127
-0.088573 -0.314386 -0.649125 141 127 121
-0.090545 -0.317181 -0.656979 132 118 112
-0.090609 -0.318250 -0.660397 120 99 98
-0.243610 -0.321579 -0.584157 72 51 50
-0.241952 -0.321275 -0.584162 89 28 31
-0.240296 -0.320971 -0.584164 88 27 30
-0.239192 -0.321005 -0.584936 93 24 19
-0.237540 -0.320701 -0.584936 92 23 18
-0.236437 -0.320735 -0.585707 92 20 16
-0.235333 -0.320769 -0.586479 92 20 16
-0.233687 -0.320465 -0.586474 92 21 14
-0.232044 -0.320160 -0.586468 91 20 13
-0.230943 -0.320195 -0.587238 91 20 13
-0.229304 -0.319890 -0.587229 92 21 14
-0.227668 -0.319585 -0.587218 92 21 14
-0.222819 -0.317247 -0.582523 94 23 16
-0.221196 -0.316942 -0.582503 83 22 0
-0.220109 -0.316976 -0.583263 142 81 57
-0.219022 -0.317009 -0.584023 123 85 29
-0.217404 -0.316704 -0.583999 121 83 27
-0.215789 -0.316399 -0.583973 101 67 16
-0.214705 -0.316432 -0.584731 105 71 20
-0.213094 -0.316127 -0.584702 105 69 28
-0.212011 -0.316160 -0.585459 99 63 22
-0.210404 -0.315855 -0.585428 101 65 26
-0.208800 -0.315549 -0.585394 103 67 28
-0.207720 -0.315582 -0.586149 98 62 25
-0.208717 -0.316973 -0.590072 99 63 26
-0.207113 -0.316668 -0.590038 102 66 29
-0.205512 -0.316362 -0.590003 102 66 29
-0.203913 -0.316056 -0.589965 92 56 17
-0.202317 -0.315750 -0.589926 103 67 28
-0.200724 -0.315444 -0.589885 119 84 29
-0.199645 -0.315477 -0.590640 121 86 31
-0.198056 -0.315171 -0.590596 110 68 24
-0.196469 -0.314865 -0.590550 64 22 0
-0.194885 -0.314558 -0.590502 79 21 7
-0.193304 -0.314252 -0.590453 79 21 7
-0.191726 -0.313945 -0.590401 80 20 9
-0.190150 -0.313639 -0.590348 80 20 9
-0.184561 -0.310613 -0.583861 82 18 11
-0.183502 -0.310645 -0.584601 82 18 11
-0.182443 -0.310678 -0.585341 82 19 9
-0.180886 -0.310371 -0.585274 82 19 9
-0.179829 -0.310404 -0.586014 83 20 10
-0.178276 -0.310097 -0.585944 83 20 10
-0.176726 -0.309789 -0.585873 82 19 9
-0.175671 -0.309822 -0.586610 83 20 10
-0.174125 -0.309514 -0.586536 84 21 11
-0.172582 -0.309207 -0.586460 86 23 13
-0.171530 -0.309239 -0.587196 92 27 14
-0.170478 -0.309272 -0.587931 97 32 19
-0.168940 -0.308964 -0.587852 107 41 17
-0.167889 -0.308997 -0.588586 111 45 21
-0.166355 -0.308689 -0.588503 112 44 14
-0.165306 -0.308721 -0.589237 110 42 12
-0.163776 -0.308413 -0.589152 109 41 11
-0.162728 -0.308446 -0.589884 108 40 10
-0.161202 -0.308138 -0.589796 109 42 9
-0.159679 -0.307829 -0.589706 110 43 10
-0.158159 -0.307521 -0.589614 110 46 12
-0.157115 -0.307553 -0.590344 110 46 12
-0.155599 -0.307245 -0.590249 106 44 14
-0.154085 -0.306936 -0.590152 99 37 7
-0.153044 -0.306969 -0.590880 92 31 7
-0.151534 -0.306660 -0.590780 89 28 4
-0.150027 -0.306351 -0.590679 79 27 7
-0.148989 -0.306383 -0.591405 76 24 4
-0.147486 -0.306075 -0.591300 68 21 8
-0.146449 -0.306107 -0.592026 66 19 6
-0.144950 -0.305798 -0.591918 67 20 9
-0.143454 -0.305489 -0.591809 66 19 8
-0.142419 -0.305521 -0.592533 66 19 8
-0.140927 -0.305211 -0.592421 66 19 8
-0.139438 -0.304902 -0.592307 66 19 8
-0.137952 -0.304593 -0.592191 66 19 8
-0.136468 -0.304283 -0.592074 66 19 8
-0.135439 -0.304315 -0.592793 67 20 9
-0.133959 -0.304006 -0.592673 72 20 9
-0.133380 -0.304379 -0.594232 74 22 11
-0.132351 -0.304411 -0.594952 90 32 9
-0.130875 -0.304101 -0.594828 105 47 24
-0.129402 -0.303791 -0.594703 112 57 15
-0.127932 -0.303481 -0.594576 115 60 18
-0.126907 -0.303513 -0.595293 116 63 16
-0.125441 -0.303203 -0.595163 116 63 16
-0.124417 -0.303235 -0.595879 117 64 17
-0.122955 -0.302925 -0.595746 117 64 17
-0.121932 -0.302957 -0.596461 117 64 17
-0.120474 -0.302646 -0.596325 116 63 16
-0.115977 -0.299942 -0.590229 114 61 14
-0.114534 -0.299631 -0.590084 109 56 9
-0.113093 -0.299320 -0.589936 110 47 8
-0.112085 -0.299351 -0.590640 109 46 7
-0.111078 -0.299383 -0.591345 107 42 11
-0.109643 -0.299072 -0.591193 104 39 8
-0.108636 -0.299103 -0.591896 92 28 10
-0.107630 -0.299134 -0.592600 81 17 0
-0.106624 -0.299165 -0.593303 74 18 6
-0.105618 -0.299197 -0.594007 72 16 4
-0.104612 -0.299228 -0.594710 69 17 6
-0.103606 -0.299259 -0.595414 68 16 5
-0.102599 -0.299290 -0.596117 67 18 8
-0.101593 -0.299321 -0.596820 67 18 8
-0.100587 -0.299353 -0.597524 67 18 8
-0.099581 -0.299384 -0.598227 68 19 9
-0.098575 -0.299415 -0.598931 71 19 10
-0.097980 -0.299789 -0.600501 72 20 11
-0.097383 -0.300163 -0.602074 80 19 11
-0.098418 -0.301908 -0.607125 80 19 11
-0.097810 -0.302283 -0.608705 83 19 12
-0.097199 -0.302657 -0.610287 83 19 12
-0.096586 -0.303032 -0.611871 86 20 14
-0.095969 -0.303406 -0.613457 87 21 15
-0.095350 -0.303781 -0.615044 88 22 16
-0.095130 -0.304499 -0.617509 90 24 18
-0.094504 -0.304874 -0.619101 94 29 27
-0.094274 -0.305592 -0.621572 103 38 36
-0.093641 -0.305967 -0.623169 107 65 62
-0.093006 -0.306342 -0.624768 130 88 85
-0.092762 -0.307061 -0.627249 133 120 109
-0.092120 -0.307436 -0.628852 137 124 113
-0.092649 -0.308842 -0.633102 135 128 118
-0.091218 -0.308531 -0.632948 136 129 119
-0.091344 -0.309594 -0.636325 137 130 122
-0.091075 -0.310313 -0.638823 138 131 123
-0.090414 -0.310689 -0.640440 137 133 124
-0.090135 -0.311409 -0.642945 139 135 126
-0.089467 -0.311785 -0.644567 139 135 126
-0.088797 -0.312161 -0.646190 135 131 122
-0.088124 -0.312537 -0.647816 141 120 117
-0.090481 -0.315664 -0.656562 127 106 103
-0.090170 -0.316385 -0.659090 121 98 97
-0.243385 -0.320026 -0.583878 73 52 49
-0.242278 -0.320060 -0.584652 89 29 29
-0.240623 -0.319758 -0.584653 88 28 28
-0.239518 -0.319792 -0.585426 93 24 19
-0.237866 -0.319489 -0.585425 92 23 18
-0.236763 -0.319523 -0.586196 92 20 16
-0.235115 -0.319220 -0.586192 92 20 16
-0.234013 -0.319255 -0.586962 92 21 14
-0.232369 -0.318951 -0.586956 92 21 14
-0.231269 -0.318986 -0.587725 91 20 13
-0.229629 -0.318682 -0.587716 92 21 14
-0.228530 -0.318717 -0.588484 92 21 14
-0.226894 -0.318413 -0.588472 94 23 16
-0.225261 -0.318110 -0.588458 85 23 4
-0.220430 -0.315781 -0.583744 115 53 34
-0.218811 -0.315478 -0.583720 120 81 32
-0.217725 -0.315511 -0.584479 119 80 31
-0.216110 -0.315207 -0.584453 104 68 18
-0.214497 -0.314903 -0.584424 106 70 20
-0.213414 -0.314937 -0.585182 105 68 23
-0.211805 -0.314633 -0.585150 102 65 20
-0.210724 -0.314666 -0.585907 101 65 24
-0.209119 -0.314362 -0.585873 99 63 22
-0.207517 -0.314058 -0.585836 102 66 25
-0.209558 -0.316119 -0.591345 98 62 21
-0.207952 -0.315814 -0.591312 102 66 27
-0.206349 -0.315510 -0.591277 101 65 26
-0.204749 -0.315206 -0.591240 95 59 18
-0.203151 -0.314901 -0.591201 98 62 21
-0.197963 -0.312230 -0.585581 119 84 29
-0.196892 -0.312263 -0.586329 119 84 29
-0.198374 -0.313987 -0.591073 125 84 37
-0.196787 -0.313683 -0.591026 59 18 0
-0.195203 -0.313378 -0.590978 77 19 5
-0.193621 -0.313073 -0.590928 79 21 7
-0.192043 -0.312768 -0.590876 80 20 9
-0.190970 -0.312801 -0.591626 80 20 9
-0.189395 -0.312496 -0.591571 82 18 11
-0.187322 -0.311852 -0.590708 82 18 11
-0.182256 -0.309177 -0.585003 82 19 9
-0.180700 -0.308871 -0.584935 82 19 9
-0.179644 -0.308904 -0.585674 82 19 9
-0.178092 -0.308598 -0.585603 82 19 9
-0.177038 -0.308631 -0.586340 82 19 9
-0.175983 -0.308663 -0.587077 82 19 9
-0.174436 -0.308357 -0.587003 83 20 10
-0.173383 -0.308390 -0.587739 84 21 11
-0.171841 -0.308084 -0.587662 85 22 12
-0.170789 -0.308116 -0.588397 89 26 16
-0.169250 -0.307810 -0.588317 97 30 13
-0.168200 -0.307843 -0.589051 103 36 19
-0.166665 -0.307536 -0.588968 109 44 15
-0.165616 -0.307569 -0.589702 108 43 14
-0.164086 -0.307262 -0.589616 109 41 11
-0.162558 -0.306956 -0.589528 108 40 10
-0.161511 -0.306988 -0.590259 109 41 11
-0.159988 -0.306681 -0.590169 109 41 11
-0.158943 -0.306714 -0.590900 109 44 13
-0.157423 -0.306407 -0.590806 110 45 14
-0.155907 -0.306100 -0.590710 105 43 15
-0.154864 -0.306132 -0.591439 99 37 9
-0.153351 -0.305825 -0.591341 85 30 9
-0.151841 -0.305518 -0.591241 78 23 2
-0.150801 -0.305550 -0.591968 66 22 6
-0.149296 -0.305243 -0.591865 65 21 5
-0.147792 -0.304935 -0.591760 64 19 8
-0.146755 -0.304967 -0.592485 63 18 7
-0.145256 -0.304660 -0.592377 64 19 8
-0.144220 -0.304692 -0.593101 63 18 7
-0.142725 -0.304384 -0.592991 63 17 9
-0.141233 -0.304077 -0.592878 63 17 9
-0.139743 -0.303769 -0.592764 64 19 8
-0.138711 -0.303801 -0.593485 64 19 8
-0.137225 -0.303493 -0.593368 66 19 8
-0.136195 -0.303525 -0.594088 66 19 8
-0.134713 -0.303217 -0.593968 68 19 9
-0.133235 -0.302909 -0.593846 73 24 14
-0.132207 -0.302941 -0.594565 93 37 13
-0.130732 -0.302632 -0.594440 107 51 27
-0.129706 -0.302664 -0.595158 112 57 15
-0.128235 -0.302356 -0.595030 115 60 18
-0.127210 -0.302387 -0.595747 116 61 15
-0.125743 -0.302079 -0.595616 117 62 16
-0.124279 -0.301770 -0.595484 117 64 17
-0.123257 -0.301802 -0.596199 117 64 17
-0.121797 -0.301493 -0.596064 117 64 17
-0.120339 -0.301184 -0.595927 116 63 16
-0.119320 -0.301216 -0.596639 113 58 12
-0.114832 -0.298523 -0.590530 109 54 8
-0.113390 -0.298214 -0.590382 110 47 8
-0.112383 -0.298245 -0.591086 109 46 7
-0.111375 -0.298276 -0.591791 107 43 9
-0.109940 -0.297967 -0.591639 106 42 8
-0.108934 -0.297998 -0.592342 97 31 11
-0.107927 -0.298029 -0.593045 85 19 0
-0.106921 -0.298060 -0.593749 78 18 5
-0.105915 -0.298091 -0.594452 77 17 4
-0.104909 -0.298123 -0.595156 73 19 9
-0.103903 -0.298154 -0.595859 70 16 6
-0.102897 -0.298185 -0.596562 67 18 6
-0.101890 -0.298216 -0.597266 67 18 6
-0.100884 -0.298248 -0.597969 67 18 8
-0.099878 -0.298279 -0.598673 68 19 9
-0.098872 -0.298310 -0.599376 71 19 10
-0.098278 -0.298682 -0.600947 72 20 11
-0.097681 -0.299055 -0.602521 80 19 11
-0.098718 -0.300793 -0.607575 80 19 11
-0.098110 -0.301166 -0.609155 84 18 12
-0.097500 -0.301539 -0.610738 85 19 13
-0.096482 -0.301570 -0.611450 86 20 14
-0.096271 -0.302285 -0.613909 86 20 14
-0.095653 -0.302658 -0.615497 88 22 16
-0.095031 -0.303032 -0.617087 91 25 19
-0.094807 -0.303747 -0.619556 94 29 29
-0.094578 -0.304462 -0.622028 106 41 41
-0.093946 -0.304835 -0.623625 107 65 62
-0.093311 -0.305209 -0.625225 133 91 88
-0.093068 -0.305925 -0.627707 133 119 111
-0.092426 -0.306299 -0.629311 137 123 115
-0.092174 -0.307015 -0.631799 136 127 118
-0.091525 -0.307389 -0.633408 137 128 119
-0.091653 -0.308447 -0.636787 137 130 122
-0.090996 -0.308821 -0.638402 138 131 123
-0.090337 -0.309196 -0.640018 139 132 124
-0.090060 -0.309912 -0.642524 141 134 126
-0.089394 -0.310287 -0.644145 139 130 123
-0.088344 -0.310320 -0.644879 131 122 115
-0.091102 -0.313775 -0.654510 129 106 105
-0.090417 -0.314150 -0.656144 126 103 102
-0.090108 -0.314867 -0.658672 120 97 96
-0.243159 -0.318476 -0.583598 73 52 49
-0.242054 -0.318510 -0.584370 89 29 29
-0.240949 -0.318544 -0.585142 88 28 28
-0.239296 -0.318243 -0.585142 91 25 21
-0.238192 -0.318277 -0.585913 90 24 20
-0.237089 -0.318311 -0.586685 90 21 16
-0.235441 -0.318010 -0.586680 90 21 16
-0.234339 -0.318044 -0.587450 92 21 14
-0.232695 -0.317743 -0.587443 92 21 14
-0.231053 -0.317441 -0.587434 91 20 13
-0.229954 -0.317475 -0.588202 92 21 14
-0.228854 -0.317509 -0.588971 92 21 14
-0.227219 -0.317207 -0.588958 92 21 14
-0.225585 -0.316905 -0.588943 90 25 12
-0.224489 -0.316939 -0.589710 99 34 21
-0.222859 -0.316637 -0.589692 114 66 29
-0.217515 -0.313983 -0.584175 113 65 28
-0.215900 -0.313680 -0.584147 104 64 20
-0.214817 -0.313714 -0.584904 102 62 18
-0.213734 -0.313747 -0.585661 102 65 22
-0.212125 -0.313445 -0.585629 100 63 20
-0.210519 -0.313142 -0.585596 100 63 20
-0.209438 -0.313175 -0.586351 98 61 18
-0.207836 -0.312873 -0.586314 103 68 24
-0.206237 -0.312570 -0.586276 97 62 18
-0.208273 -0.314622 -0.591792 103 67 26
-0.206670 -0.314319 -0.591757 99 63 22
-0.205069 -0.314016 -0.591719 96 60 19
-0.203471 -0.313713 -0.591680 98 62 21
-0.201875 -0.313410 -0.591638 117 82 27
-0.200283 -0.313107 -0.591595 118 83 28
-0.198692 -0.312804 -0.591550 128 87 38
-0.197105 -0.312500 -0.591503 62 21 0
-0.195521 -0.312197 -0.591454 77 19 5
-0.193939 -0.311893 -0.591403 77 19 5
-0.192359 -0.311590 -0.591351 78 17 9
-0.191287 -0.311623 -0.592100 78 17 9
-0.189712 -0.311319 -0.592045 80 16 9
-0.188139 -0.311016 -0.591988 80 16 9
-0.186570 -0.310712 -0.591928 82 18 11
-0.185003 -0.310408 -0.591867 82 18 11
-0.183438 -0.310104 -0.591804 82 19 9
-0.178900 -0.307777 -0.586880 82 19 9
-0.177349 -0.307472 -0.586807 82 19 9
-0.176294 -0.307505 -0.587545 82 19 9
-0.174748 -0.307200 -0.587469 82 19 9
-0.173694 -0.307233 -0.588206 82 19 9
-0.172151 -0.306928 -0.588128 83 20 10
-0.171099 -0.306961 -0.588863 84 21 11
-0.169561 -0.306656 -0.588782 87 24 12
-0.168025 -0.306351 -0.588699 93 30 18
-0.166975 -0.306384 -0.589433 101 38 15
-0.165926 -0.306416 -0.590166 105 42 19
-0.164395 -0.306111 -0.590080 108 40 10
-0.163347 -0.306144 -0.590812 108 40 10
-0.161821 -0.305838 -0.590723 109 40 10
-0.160297 -0.305533 -0.590632 109 40 10
-0.158776 -0.305228 -0.590538 107 42 13
-0.157732 -0.305260 -0.591268 106 41 12
-0.156215 -0.304955 -0.591172 98 37 13
-0.155172 -0.304987 -0.591901 92 31 7
-0.153659 -0.304681 -0.591802 75 27 10
-0.152618 -0.304714 -0.592530 67 19 2
-0.151109 -0.304408 -0.592428 61 19 7
-0.149602 -0.304102 -0.592325 60 18 6
-0.148099 -0.303796 -0.592219 60 20 7
-0.147062 -0.303828 -0.592944 59 19 6
-0.145562 -0.303522 -0.592836 59 18 8
-0.144526 -0.303554 -0.593560 59 18 8
-0.143031 -0.303248 -0.593449 59 18 8
-0.141996 -0.303280 -0.594172 59 18 8
-0.140505 -0.302974 -0.594058 61 18 9
-0.139016 -0.302668 -0.593942 61 18 9
-0.137530 -0.302361 -0.593824 63 18 7
-0.136499 -0.302393 -0.594545 64 19 8
-0.135469 -0.302425 -0.595265 64 19 8
-0.133988 -0.302118 -0.595144 69 24 13
-0.132510 -0.301812 -0.595020 91 37 13
-0.131483 -0.301844 -0.595739 105 51 27
-0.130009 -0.301537 -0.595612 112 57 15
-0.128982 -0.301569 -0.596330 113 58 16
-0.127512 -0.301262 -0.596201 116 61 15
-0.126045 -0.300955 -0.596070 117 62 16
-0.124581 -0.300647 -0.595937 118 63 17
-0.123559 -0.300679 -0.596651 118 63 17
-0.122098 -0.300372 -0.596516 118 63 17
-0.120641 -0.300064 -0.596378 116 61 15
-0.119621 -0.300096 -0.597091 114 56 13
-0.118167 -0.299789 -0.596950 110 52 9
-0.116716 -0.299481 -0.596808 110 47 8
-0.115699 -0.299513 -0.597519 110 47 8
-0.111673 -0.297170 -0.592237 107 43 9
-0.110237 -0.296862 -0.592084 107 43 9
-0.109231 -0.296893 -0.592787 103 37 15
-0.108225 -0.296924 -0.593491 88 22 0
-0.107219 -0.296955 -0.594194 84 22 5
-0.106212 -0.296986 -0.594898 86 24 7
-0.105206 -0.297018 -0.595601 84 28 12
-0.104200 -0.297049 -0.596305 79 23 7
-0.103194 -0.297080 -0.597008 72 19 6
-0.102188 -0.297111 -0.597711 70 17 4
-0.101182 -0.297142 -0.598415 69 17 6
-0.100175 -0.297174 -0.599118 70 18 7
-0.101651 -0.299243 -0.605027 72 18 8
-0.100637 -0.299275 -0.605736 73 19 9
-0.099623 -0.299306 -0.606445 80 19 11
-0.099018 -0.299678 -0.608024 80 19 11
-0.098411 -0.300049 -0.609606 84 18 12
-0.097801 -0.300420 -0.611189 85 19 13
-0.097188 -0.300792 -0.612774 86 20 14
-0.096573 -0.301164 -0.614361 86 20 14
-0.095955 -0.301535 -0.615950 88 22 16
-0.095334 -0.301907 -0.617541 90 24 18
-0.094710 -0.302279 -0.619133 94 29 29
-0.095679 -0.304012 -0.624239 108 43 43
-0.095045 -0.304384 -0.625839 107 65 62
-0.094408 -0.304756 -0.627442 137 95 92
-0.094163 -0.305469 -0.629926 133 119 111
-0.093519 -0.305842 -0.631533 136 122 114
-0.092088 -0.305533 -0.631376 136 127 118
-0.091442 -0.305906 -0.632985 137 128 119
-0.091182 -0.306619 -0.635480 137 130 122
-0.090917 -0.307333 -0.637979 139 132 124
-0.090260 -0.307706 -0.639595 139 132 124
-0.089600 -0.308079 -0.641214 137 130 122
-0.088937 -0.308452 -0.642834 136 120 115
-0.091333 -0.311551 -0.651569 128 112 107
-0.091035 -0.312265 -0.654091 128 102 102
-0.090732 -0.312979 -0.656616 126 100 100
-0.090423 -0.313694 -0.659145 112 88 90
-0.243485 -0.317262 -0.584087 76 53 50
-0.242380 -0.317297 -0.584859 87 29 29
-0.241275 -0.317331 -0.585632 86 28 28
-0.239622 -0.317031 -0.585630 89 25 20
-0.238518 -0.317065 -0.586402 87 23 18
-0.236868 -0.316765 -0.586398 88 22 16
-0.235766 -0.316800 -0.587168 88 22 16
-0.234664 -0.316834 -0.587938 90 22 14
-0.233020 -0.316534 -0.587931 90 22 14
-0.231378 -0.316233 -0.587921 89 21 13
-0.230279 -0.316268 -0.588689 89 21 13
-0.228641 -0.315967 -0.588677 89 21 13
-0.227543 -0.316001 -0.589444 90 22 14
-0.225909 -0.315701 -0.589429 92 24 14
-0.224813 -0.315735 -0.590195 96 28 18
-0.223183 -0.315434 -0.590177 97 40 19
-0.221556 -0.315134 -0.590157 98 41 20
-0.219932 -0.314833 -0.590135 94 48 17
-0.214608 -0.312189 -0.584596 95 49 18
-0.213526 -0.312223 -0.585352 97 54 19
-0.211918 -0.311922 -0.585319 97 54 19
-0.210313 -0.311620 -0.585283 98 57 20
-0.212898 -0.313998 -0.591579 95 54 17
-0.211810 -0.314032 -0.592340 99 61 23
-0.210201 -0.313731 -0.592308 95 57 19
-0.208594 -0.313429 -0.592273 98 62 21
-0.206990 -0.313128 -0.592237 97 61 20
-0.205389 -0.312827 -0.592199 96 60 19
-0.203790 -0.312525 -0.592159 97 61 20
-0.202194 -0.312223 -0.592117 113 74 23
-0.200601 -0.311922 -0.592073 116 77 26
-0.199011 -0.311620 -0.592027 123 84 37
-0.197423 -0.311318 -0.591980 67 28 0
-0.195838 -0.311016 -0.591930 75 19 5
-0.194256 -0.310714 -0.591879 75 19 5
-0.192676 -0.310412 -0.591826 78 17 9
-0.191604 -0.310445 -0.592575 78 17 9
-0.190028 -0.310143 -0.592519 78 17 9
-0.188455 -0.309841 -0.592461 78 17 9
-0.187386 -0.309874 -0.593209 80 16 9
-0.185817 -0.309572 -0.593148 80 16 9
-0.184251 -0.309269 -0.593085 80 16 9
-0.182687 -0.308966 -0.593021 80 16 9
-0.179146 -0.307321 -0.589709 80 17 7
-0.176112 -0.306011 -0.587199 80 17 7
-0.175059 -0.306043 -0.587936 82 19 9
-0.173514 -0.305740 -0.587858 82 19 9
-0.172952 -0.306109 -0.589409 82 19 9
-0.171410 -0.305805 -0.589329 83 20 10
-0.169871 -0.305502 -0.589247 83 20 10
-0.168335 -0.305199 -0.589164 86 23 13
-0.169707 -0.306911 -0.593992 92 28 12
-0.168168 -0.306608 -0.593911 100 36 20
-0.167113 -0.306641 -0.594648 104 39 12
-0.165578 -0.306337 -0.594564 104 39 12
-0.164046 -0.306034 -0.594478 106 37 9
-0.162516 -0.305730 -0.594389 106 37 9
-0.161465 -0.305763 -0.595124 103 38 11
-0.160414 -0.305795 -0.595859 99 34 7
-0.156523 -0.303809 -0.591634 85 30 11
-0.155480 -0.303842 -0.592363 80 25 6
-0.153967 -0.303538 -0.592263 66 22 6
-0.152925 -0.303570 -0.592991 62 18 2
-0.151884 -0.303602 -0.593719 57 19 8
-0.150376 -0.303298 -0.593616 55 17 6
-0.148405 -0.302657 -0.592678 55 17 6
-0.147368 -0.302689 -0.593403 55 17 6
-0.146331 -0.302721 -0.594129 55 17 8
-0.144832 -0.302417 -0.594019 57 19 10
-0.143336 -0.302112 -0.593907 57 19 8
-0.142302 -0.302144 -0.594630 57 19 8
-0.140810 -0.301839 -0.594516 61 18 9
-0.139777 -0.301871 -0.595238 61 18 9
-0.138289 -0.301566 -0.595120 61 19 7
-0.137257 -0.301598 -0.595842 61 19 7
-0.135773 -0.301293 -0.595721 63 18 7
-0.134292 -0.300988 -0.595599 66 21 10
-0.133263 -0.301020 -0.596319 87 35 15
-0.131786 -0.300715 -0.596194 98 46 26
-0.130312 -0.300409 -0.596067 110 54 17
-0.129286 -0.300441 -0.596784 113 57 20
-0.127372 -0.299798 -0.595807 115 60 14
-0.126348 -0.299830 -0.596523 117 62 16
-0.125324 -0.299862 -0.597239 118 63 17
-0.123861 -0.299556 -0.597104 117 62 16
-0.122838 -0.299588 -0.597819 117 62 16
-0.121379 -0.299282 -0.597682 115 60 14
-0.119922 -0.298976 -0.597542 110 55 11
-0.118468 -0.298670 -0.597401 108 53 9
-0.117017 -0.298364 -0.597258 110 47 8
-0.116000 -0.298396 -0.597969 110 47 8
-0.111971 -0.296063 -0.592683 108 44 8
-0.110534 -0.295756 -0.592530 107 43 7
-0.109528 -0.295788 -0.593233 106 38 12
-0.108522 -0.295819 -0.593936 97 29 3
-0.107516 -0.295850 -0.594640 92 29 8
-0.106510 -0.295881 -0.595343 94 31 10
-0.105503 -0.295913 -0.596047 97 39 16
-0.104497 -0.295944 -0.596750 94 36 13
-0.103491 -0.295975 -0.597454 88 31 12
-0.102485 -0.296006 -0.598157 77 20 1
-0.101479 -0.296037 -0.598860 71 18 5
-0.100473 -0.296069 -0.599564 72 19 6
-0.099466 -0.296100 -0.600267 75 18 9
-0.098873 -0.296469 -0.601840 75 18 9
-0.100745 -0.298869 -0.608634 80 19 11
-0.099318 -0.298562 -0.608474 81 20 12
-0.098711 -0.298932 -0.610056 84 18 12
-0.098102 -0.299302 -0.611640 85 19 13
-0.098301 -0.300349 -0.614973 88 19 14
-0.097684 -0.300719 -0.616562 89 20 15
-0.097063 -0.301090 -0.618154 90 21 16
-0.096842 -0.301799 -0.620624 92 23 18
-0.095013 -0.301153 -0.619587 94 29 31
-0.094786 -0.301862 -0.622061 108 43 45
-0.094156 -0.302233 -0.623659 109 67 64
-0.094713 -0.303620 -0.627900 140 98 95
-0.094074 -0.303991 -0.629504 132 121 112
-0.093826 -0.304701 -0.631993 134 123 114
-0.093180 -0.305072 -0.633602 135 126 117
-0.092531 -0.305443 -0.635213 136 127 118
-0.091490 -0.305476 -0.635941 137 130 122
-0.090448 -0.305508 -0.636669 138 131 123
-0.090181 -0.306218 -0.639171 139 130 123
-0.092223 -0.308964 -0.647005 135 126 119
-0.091937 -0.309675 -0.649520 133 112 109
-0.091646 -0.310386 -0.652039 125 104 101
-0.091349 -0.311098 -0.654561 128 100 99
-0.090666 -0.311470 -0.656196 125 97 96
-0.090360 -0.312181 -0.658725 112 89 88
-0.242704 -0.315384 -0.583033 78 55 52
-0.241602 -0.315418 -0.583804 87 29 29
-0.240500 -0.315452 -0.584574 85 27 27
-0.239398 -0.315487 -0.585345 87 22 20
-0.238296 -0.315521 -0.586115 87 22 20
-0.237194 -0.315555 -0.586886 87 21 15
-0.235546 -0.315256 -0.586879 87 21 15
-0.234446 -0.315291 -0.587648 89 20 15
-0.232802 -0.314992 -0.587639 89 20 15
-0.231703 -0.315026 -0.588407 89 21 13
-0.230063 -0.314727 -0.588395 89 21 13
-0.228965 -0.314761 -0.589163 89 21 13
-0.227330 -0.314462 -0.589148 90 22 14
-0.226233 -0.314496 -0.589914 90 22 14
-0.224602 -0.314197 -0.589896 93 25 17
-0.222973 -0.313898 -0.589876 92 29 15
-0.221879 -0.313932 -0.590641 92 29 15
-0.220255 -0.313633 -0.590619 87 32 13
-0.218633 -0.313334 -0.590594 86 31 12
-0.217542 -0.313368 -0.591357 84 34 13
-0.215924 -0.313068 -0.591329 82 32 11
-0.214309 -0.312769 -0.591300 86 39 15
-0.213220 -0.312802 -0.592061 83 36 12
-0.212131 -0.312836 -0.592822 90 48 20
-0.210522 -0.312536 -0.592789 86 44 16
-0.208915 -0.312237 -0.592754 91 49 19
-0.207310 -0.311937 -0.592717 91 49 19
-0.205709 -0.311637 -0.592678 94 53 18
-0.204110 -0.311337 -0.592638 94 53 18
-0.203028 -0.311370 -0.593394 99 57 15
-0.201433 -0.311070 -0.593351 109 67 25
-0.199841 -0.310770 -0.593305 112 71 32
-0.198252 -0.310470 -0.593258 74 33 0
-0.196665 -0.310169 -0.593209 72 19 4
-0.195081 -0.309869 -0.593158 72 19 4
-0.193499 -0.309568 -0.593105 76 17 8
-0.191921 -0.309268 -0.593050 76 17 8
-0.190848 -0.309301 -0.593800 77 16 8
-0.189274 -0.309000 -0.593742 78 17 9
-0.187702 -0.308699 -0.593683 80 16 9
-0.183135 -0.306394 -0.588766 80 16 9
-0.182075 -0.306426 -0.589507 80 16 9
-0.180518 -0.306125 -0.589437 80 16 9
-0.179459 -0.306158 -0.590177 80 16 9
-0.178400 -0.306191 -0.590918 80 16 9
-0.178820 -0.307227 -0.594100 80 17 7
-0.173825 -0.304585 -0.588324 80 17 7
-0.174734 -0.305955 -0.592323 80 17 7
-0.171232 -0.304315 -0.588978 82 19 9
-0.172619 -0.306020 -0.593801 82 19 9
-0.169131 -0.304381 -0.590447 84 21 11
-0.170019 -0.305751 -0.594460 86 23 9
-0.168963 -0.305784 -0.595199 92 29 15
-0.167425 -0.305482 -0.595115 99 36 11
-0.166370 -0.305515 -0.595853 100 37 12
-0.164836 -0.305213 -0.595767 104 36 10
-0.163304 -0.304911 -0.595679 102 34 8
-0.162252 -0.304944 -0.596414 96 35 11
-0.161200 -0.304976 -0.597150 89 28 4
-0.159674 -0.304674 -0.597058 73 25 8
-0.158151 -0.304372 -0.596965 68 20 3
-0.157101 -0.304404 -0.597698 60 20 7
-0.155582 -0.304102 -0.597602 57 17 4
-0.154066 -0.303799 -0.597504 53 17 5
-0.153019 -0.303831 -0.598236 53 17 5
-0.149177 -0.301853 -0.593970 53 17 7
-0.148139 -0.301885 -0.594697 54 18 8
-0.146637 -0.301582 -0.594588 54 18 8
-0.145600 -0.301614 -0.595313 54 18 8
-0.144102 -0.301311 -0.595202 55 17 6
-0.142607 -0.301008 -0.595088 55 17 6
-0.141115 -0.300704 -0.594973 59 18 8
-0.139626 -0.300401 -0.594856 60 19 9
-0.138594 -0.300433 -0.595577 61 18 9
-0.137562 -0.300465 -0.596299 61 18 9
-0.136078 -0.300161 -0.596178 63 18 7
-0.135047 -0.300193 -0.596898 65 20 9
-0.134916 -0.300897 -0.599307 81 30 14
-0.133435 -0.300593 -0.599184 88 37 21
-0.129721 -0.298611 -0.594829 102 47 16
-0.129143 -0.298978 -0.596392 108 53 22
-0.127674 -0.298674 -0.596261 115 60 16
-0.126650 -0.298706 -0.596976 116 61 17
-0.125185 -0.298402 -0.596842 117 62 16
-0.124163 -0.298433 -0.597557 117 62 16
-0.122701 -0.298129 -0.597420 117 62 16
-0.121680 -0.298161 -0.598134 113 58 12
-0.120223 -0.297856 -0.597994 112 54 11
-0.118769 -0.297552 -0.597852 110 52 9
-0.117317 -0.297247 -0.597709 109 49 9
-0.116300 -0.297279 -0.598420 109 49 9
-0.115283 -0.297310 -0.599131 107 46 9
-0.110832 -0.294651 -0.592975 106 45 8
-0.109825 -0.294683 -0.593679 105 44 9
-0.108819 -0.294714 -0.594382 99 38 3
-0.110790 -0.297100 -0.601113 101 39 9
-0.109774 -0.297132 -0.601823 101 39 9
-0.108336 -0.296827 -0.601670 102 45 15
-0.104795 -0.294839 -0.597196 104 47 17
-0.103788 -0.294870 -0.597899 99 41 14
-0.102782 -0.294901 -0.598603 94 36 9
-0.101776 -0.294932 -0.599306 82 24 10
-0.100770 -0.294963 -0.600009 76 18 4
-0.103080 -0.297689 -0.607662 77 18 9
-0.102063 -0.297720 -0.608373 77 18 9
-0.101046 -0.297752 -0.609084 83 19 12
-0.100439 -0.298120 -0.610667 83 19 12
-0.099830 -0.298489 -0.612251 86 17 12
-0.099218 -0.298857 -0.613838 87 18 13
-0.098603 -0.299226 -0.615426 88 19 14
-0.097986 -0.299595 -0.617016 89 20 15
-0.097366 -0.299964 -0.618608 90 21 16
-0.095939 -0.299658 -0.618447 92 23 18
-0.096118 -0.300702 -0.621797 92 30 31
-0.095889 -0.301408 -0.624274 108 46 47
-0.095257 -0.301777 -0.625874 109 67 66
-0.094225 -0.301809 -0.626596 141 99 98
-0.094380 -0.302853 -0.629963 132 121 112
-0.093739 -0.303223 -0.631570 134 123 114
-0.093094 -0.303593 -0.633179 135 126 117
-0.092447 -0.303962 -0.634790 136 127 118
-0.091407 -0.303994 -0.635517 137 130 122
-0.090756 -0.304364 -0.637130 137 130 122
-0.092815 -0.307097 -0.644959 137 123 117
-0.092535 -0.307805 -0.647472 133 119 113
-0.092250 -0.308513 -0.649988 127 101 99
-0.091959 -0.309222 -0.652508 127 101 99
-0.091281 -0.309592 -0.654141 129 98 98
-0.090600 -0.309963 -0.655775 127 96 96
-0.090296 -0.310672 -0.658305 112 89 88
-0.242476 -0.313843 -0.582749 78 55 52
-0.241375 -0.313877 -0.583519 85 29 31
-0.240274 -0.313911 -0.584288 83 27 29
-0.239174 -0.313945 -0.585058 85 23 20
-0.238073 -0.313979 -0.585827 84 22 19
-0.236425 -0.313682 -0.585820 86 22 17
-0.235326 -0.313716 -0.586589 86 22 17
-0.234226 -0.313750 -0.587357 85 21 14
-0.233127 -0.313785 -0.588126 85 21 14
-0.231486 -0.313487 -0.588114 87 21 15
