ply
format ascii 1.0
element vertex 1174
property float x
property float y
property float z
property uchar red
property uchar green
property uchar blue
end_header
-0.254427 -0.191149 -0.423462 136 57 60
-0.255982 -0.191482 -0.423010 102 68 76
-0.257042 -0.191516 -0.423416 97 63 71
-0.258601 -0.191849 -0.422965 104 94 80
-0.260164 -0.192183 -0.422515 155 145 131
-0.261227 -0.192216 -0.422923 166 147 93
-0.262794 -0.192550 -0.422475 166 147 93
-0.264364 -0.192884 -0.422028 172 143 92
-0.265430 -0.192918 -0.422437 160 131 80
-0.267005 -0.193251 -0.421992 107 44 23
-0.268583 -0.193585 -0.421548 116 53 32
-0.270164 -0.193919 -0.421106 123 48 42
-0.271748 -0.194253 -0.420664 125 50 44
-0.273335 -0.194588 -0.420224 126 51 45
-0.274925 -0.194922 -0.419785 126 51 45
-0.276518 -0.195256 -0.419348 122 53 48
-0.278114 -0.195591 -0.418911 122 53 48
-0.279713 -0.195925 -0.418476 119 55 48
-0.281316 -0.196260 -0.418041 119 55 48
-0.282921 -0.196595 -0.417608 117 56 50
-0.284530 -0.196930 -0.417176 117 56 50
-0.286141 -0.197265 -0.416746 116 57 50
-0.287756 -0.197600 -0.416316 115 56 49
-0.289374 -0.197935 -0.415888 115 56 49
-0.290995 -0.198270 -0.415461 114 55 48
-0.292619 -0.198606 -0.415035 112 54 50
-0.294246 -0.198941 -0.414610 109 51 47
-0.295876 -0.199277 -0.414186 107 52 47
-0.297509 -0.199613 -0.413764 107 52 47
-0.297528 -0.199046 -0.415867 106 53 49
-0.299162 -0.199381 -0.415445 106 53 49
-0.300800 -0.199717 -0.415025 104 54 51
-0.302441 -0.200053 -0.414605 105 55 52
-0.304085 -0.200389 -0.414187 107 56 56
-0.306279 -0.201026 -0.412931 104 53 53
-0.311221 -0.203170 -0.407488 101 51 48
-0.313435 -0.203808 -0.406240 102 52 49
-0.315103 -0.204144 -0.405831 110 48 47
-0.316775 -0.204481 -0.405424 111 49 48
-0.318450 -0.204818 -0.405017 112 47 45
-0.320127 -0.205155 -0.404612 112 47 45
-0.321808 -0.205493 -0.404208 113 48 46
-0.323492 -0.205830 -0.403805 113 48 46
-0.325179 -0.206167 -0.403403 113 48 46
-0.326869 -0.206505 -0.403002 114 49 47
-0.329126 -0.207144 -0.401771 112 51 45
-0.330824 -0.207482 -0.401373 108 47 41
-0.332525 -0.207820 -0.400977 104 46 32
-0.334229 -0.208158 -0.400581 120 62 48
-0.336506 -0.208797 -0.399357 133 73 60
-0.338217 -0.209136 -0.398965 116 56 43
-0.340505 -0.209776 -0.397745 110 50 46
-0.342225 -0.210114 -0.397356 110 50 46
-0.343947 -0.210453 -0.396968 107 52 49
-0.346250 -0.211094 -0.395754 110 55 52
-0.347980 -0.211432 -0.395369 107 60 61
-0.350294 -0.212073 -0.394159 107 60 61
-0.177403 -0.194191 -0.369254 112 91 86
-0.177382 -0.193344 -0.372392 140 119 114
-0.177725 -0.192790 -0.374621 138 131 125
-0.178061 -0.192236 -0.376848 143 136 130
-0.178392 -0.191682 -0.379072 143 140 135
-0.178716 -0.191128 -0.381294 145 142 137
-0.178655 -0.190279 -0.384416 143 143 137
-0.178965 -0.189725 -0.386633 141 141 135
-0.174679 -0.185636 -0.399675 141 141 135
-0.174575 -0.184786 -0.402781 140 140 134
-0.174847 -0.184230 -0.404983 140 140 134
-0.175113 -0.183674 -0.407182 139 139 133
-0.175373 -0.183118 -0.409379 142 143 137
-0.175626 -0.182561 -0.411574 142 143 137
-0.175874 -0.182005 -0.413767 142 143 137
-0.176508 -0.181742 -0.415058 143 144 138
-0.176745 -0.181185 -0.417247 143 144 138
-0.177372 -0.180923 -0.418535 149 150 144
-0.177996 -0.180661 -0.419823 151 152 146
-0.178616 -0.180398 -0.421110 160 161 155
-0.179234 -0.180135 -0.422395 144 118 116
-0.179849 -0.179873 -0.423679 96 70 68
-0.180864 -0.179905 -0.424068 127 67 63
-0.181474 -0.179642 -0.425351 107 47 43
-0.182081 -0.179379 -0.426632 109 37 35
-0.183093 -0.179411 -0.427020 110 38 36
-0.184106 -0.179444 -0.427407 110 37 35
-0.185118 -0.179476 -0.427795 111 38 36
-0.186131 -0.179508 -0.428183 111 38 36
-0.187143 -0.179540 -0.428571 112 39 37
-0.188156 -0.179572 -0.428958 112 39 37
-0.189168 -0.179605 -0.429346 114 41 39
-0.190181 -0.179637 -0.429734 114 41 37
-0.191193 -0.179669 -0.430122 117 44 40
-0.192205 -0.179701 -0.430510 126 46 40
-0.193218 -0.179733 -0.430897 132 52 46
-0.194656 -0.180061 -0.430399 141 49 45
-0.195670 -0.180094 -0.430788 141 49 45
-0.196684 -0.180126 -0.431176 144 52 50
-0.198128 -0.180454 -0.430680 145 53 51
-0.199144 -0.180486 -0.431069 145 56 55
-0.200593 -0.180815 -0.430575 147 58 57
-0.201610 -0.180847 -0.430965 147 62 64
-0.203063 -0.181176 -0.430473 144 59 61
-0.204520 -0.181504 -0.429982 129 61 67
-0.205979 -0.181833 -0.429492 136 68 74
-0.207001 -0.181865 -0.429883 143 84 87
-0.208023 -0.181898 -0.430275 136 77 80
-0.209488 -0.182227 -0.429787 132 66 73
-0.210957 -0.182556 -0.429301 129 63 70
-0.212429 -0.182885 -0.428816 172 132 137
-0.213455 -0.182918 -0.429209 193 153 158
-0.214482 -0.182950 -0.429602 181 142 149
-0.215960 -0.183280 -0.429120 120 81 88
-0.217441 -0.183609 -0.428638 163 138 150
-0.218925 -0.183938 -0.428158 200 175 187
-0.220412 -0.184268 -0.427679 175 182 186
-0.221903 -0.184598 -0.427201 177 184 188
-0.223396 -0.184928 -0.426724 179 169 179
-0.224893 -0.185257 -0.426248 114 104 114
-0.225930 -0.185290 -0.426645 185 178 189
-0.227431 -0.185620 -0.426171 185 178 189
-0.228935 -0.185951 -0.425699 178 181 184
-0.230442 -0.186281 -0.425227 185 188 191
-0.231953 -0.186611 -0.424757 142 98 109
-0.233466 -0.186941 -0.424288 114 70 81
-0.234511 -0.186975 -0.424688 138 66 80
-0.236029 -0.187305 -0.424221 136 64 78
-0.237550 -0.187636 -0.423754 133 81 86
-0.239551 -0.188264 -0.422423 144 92 97
-0.241080 -0.188595 -0.421960 155 110 113
-0.240694 -0.187736 -0.424958 183 138 141
-0.242223 -0.188067 -0.424495 168 117 117
-0.243272 -0.188100 -0.424897 146 95 95
-0.244805 -0.188431 -0.424436 133 71 72
-0.246342 -0.188762 -0.423975 137 75 76
-0.247882 -0.189094 -0.423516 145 68 70
-0.248936 -0.189127 -0.423920 140 63 65
-0.250480 -0.189459 -0.423463 141 56 61
-0.252027 -0.189790 -0.423006 139 54 59
-0.253578 -0.190122 -0.422551 135 58 62
-0.255131 -0.190453 -0.422098 134 57 61
-0.256191 -0.190487 -0.422504 99 66 77
-0.257749 -0.190819 -0.422052 89 56 67
-0.259310 -0.191151 -0.421601 121 112 95
-0.260374 -0.191185 -0.422008 162 153 136
-0.261939 -0.191517 -0.421559 167 148 94
-0.263508 -0.191849 -0.421111 167 148 94
-0.264574 -0.191883 -0.421519 174 145 92
-0.266148 -0.192215 -0.421073 164 135 82
-0.267724 -0.192548 -0.420628 114 51 30
-0.269304 -0.192880 -0.420184 116 53 32
-0.270887 -0.193213 -0.419742 123 48 42
-0.272473 -0.193545 -0.419300 123 48 42
-0.274061 -0.193878 -0.418860 127 49 47
-0.275653 -0.194211 -0.418421 126 48 46
-0.277248 -0.194544 -0.417983 123 51 47
-0.278846 -0.194877 -0.417546 123 51 47
-0.280448 -0.195211 -0.417111 119 53 47
-0.282052 -0.195544 -0.416676 120 54 48
-0.283659 -0.195877 -0.416243 119 53 49
-0.285270 -0.196211 -0.415811 120 54 50
-0.286883 -0.196544 -0.415380 118 54 49
-0.288500 -0.196878 -0.414951 117 53 48
-0.290119 -0.197212 -0.414522 115 53 50
-0.291742 -0.197546 -0.414095 113 51 48
-0.293368 -0.197880 -0.413669 114 54 50
-0.294996 -0.198214 -0.413244 112 52 48
-0.295019 -0.197650 -0.415350 111 56 53
-0.296650 -0.197984 -0.414926 111 56 53
-0.298283 -0.198318 -0.414503 109 58 58
-0.299920 -0.198653 -0.414081 108 57 57
-0.301559 -0.198987 -0.413660 104 56 60
-0.303202 -0.199322 -0.413240 98 50 54
-0.304848 -0.199656 -0.412822 109 73 77
-0.310327 -0.202089 -0.406530 141 105 109
-0.311989 -0.202424 -0.406118 175 132 134
-0.313655 -0.202759 -0.405707 126 83 85
-0.315876 -0.203394 -0.404460 112 50 49
-0.317549 -0.203730 -0.404052 111 49 48
-0.319226 -0.204066 -0.403645 113 48 46
-0.320349 -0.204101 -0.404076 112 47 45
-0.322588 -0.204737 -0.402836 114 48 44
-0.323715 -0.204773 -0.403267 116 50 46
-0.325963 -0.205409 -0.402030 115 52 42
-0.327655 -0.205745 -0.401630 111 48 38
-0.329350 -0.206081 -0.401230 115 59 35
-0.331613 -0.206718 -0.399999 151 95 71
-0.333316 -0.207054 -0.399603 166 113 80
-0.335022 -0.207391 -0.399207 155 102 69
-0.336731 -0.207727 -0.398813 152 96 72
-0.338443 -0.208064 -0.398420 130 74 50
-0.340731 -0.208702 -0.397199 111 51 47
-0.342451 -0.209039 -0.396809 110 50 46
-0.344173 -0.209376 -0.396420 107 52 49
-0.346477 -0.210013 -0.395204 110 55 52
-0.348208 -0.210351 -0.394818 105 60 63
-0.350522 -0.210989 -0.393607 105 60 63
-0.177619 -0.193165 -0.368732 113 90 85
-0.177597 -0.192321 -0.371872 141 118 113
-0.177939 -0.191771 -0.374102 137 128 121
-0.178275 -0.191220 -0.376330 142 133 126
-0.178605 -0.190669 -0.378556 141 139 131
-0.178929 -0.190117 -0.380779 145 143 135
-0.174310 -0.185758 -0.394755 143 143 137
-0.174601 -0.185205 -0.396966 144 144 138
-0.174886 -0.184653 -0.399174 141 141 135
-0.174781 -0.183807 -0.402283 140 140 134
-0.175438 -0.183547 -0.403584 140 140 134
-0.175318 -0.182701 -0.406687 138 138 132
-0.175577 -0.182147 -0.408886 143 143 137
-0.175830 -0.181594 -0.411082 141 141 135
-0.176077 -0.181040 -0.413276 142 143 137
-0.176711 -0.180779 -0.414568 143 144 138
-0.176947 -0.180225 -0.416758 143 144 140
-0.177574 -0.179964 -0.418048 149 150 146
-0.178197 -0.179703 -0.419336 152 153 147
-0.178817 -0.179442 -0.420623 152 153 147
-0.179435 -0.179181 -0.421910 152 126 124
-0.180049 -0.178920 -0.423194 96 70 68
-0.181065 -0.178952 -0.423583 127 67 63
-0.181674 -0.178691 -0.424867 105 45 41
-0.182281 -0.178429 -0.426148 110 38 36
-0.183293 -0.178461 -0.426536 109 37 35
-0.184306 -0.178493 -0.426924 111 38 36
-0.185318 -0.178526 -0.427312 111 38 36
-0.186331 -0.178558 -0.427700 111 38 36
-0.187343 -0.178590 -0.428087 112 39 37
-0.188355 -0.178622 -0.428475 112 39 37
-0.189368 -0.178654 -0.428863 113 40 38
-0.190380 -0.178687 -0.429251 113 40 36
-0.191393 -0.178719 -0.429638 116 43 39
-0.192828 -0.179045 -0.429139 123 46 39
-0.193842 -0.179078 -0.429527 130 53 46
-0.195282 -0.179404 -0.429029 139 50 45
-0.196298 -0.179436 -0.429418 140 51 46
-0.197313 -0.179469 -0.429807 142 53 52
-0.198759 -0.179796 -0.429311 144 55 54
-0.199776 -0.179828 -0.429700 144 59 61
-0.201227 -0.180155 -0.429206 146 61 63
-0.202245 -0.180187 -0.429596 129 67 75
-0.203701 -0.180514 -0.429104 155 93 101
-0.205159 -0.180842 -0.428613 166 140 140
-0.206621 -0.181169 -0.428123 188 162 162
-0.207644 -0.181202 -0.428515 185 169 164
-0.208667 -0.181234 -0.428907 170 154 149
-0.210135 -0.181562 -0.428419 127 95 100
-0.211605 -0.181889 -0.427933 148 116 121
-0.213079 -0.182217 -0.427448 196 183 187
-0.214107 -0.182250 -0.427842 190 177 181
-0.215135 -0.182282 -0.428235 193 177 184
-0.216615 -0.182610 -0.427752 129 113 120
-0.218098 -0.182938 -0.427271 158 144 155
-0.219584 -0.183266 -0.426790 194 180 191
-0.221073 -0.183594 -0.426311 172 184 186
-0.222565 -0.183923 -0.425833 171 183 185
-0.224060 -0.184251 -0.425356 184 179 187
-0.225559 -0.184580 -0.424880 115 110 118
-0.226597 -0.184613 -0.425278 160 138 152
-0.228100 -0.184941 -0.424804 199 177 191
-0.229606 -0.185270 -0.424331 195 170 180
-0.231115 -0.185599 -0.423859 149 124 134
-0.232628 -0.185928 -0.423389 134 76 90
-0.234143 -0.186257 -0.422920 125 67 81
-0.235189 -0.186290 -0.423320 139 78 81
-0.236709 -0.186619 -0.422853 151 90 93
-0.238232 -0.186948 -0.422387 184 131 127
-0.239758 -0.187278 -0.421921 176 123 119
-0.241287 -0.187607 -0.421457 160 101 104
-0.243299 -0.188233 -0.420129 143 84 87
-0.244836 -0.188563 -0.419668 142 72 74
-0.246376 -0.188892 -0.419208 143 73 75
-0.245497 -0.187741 -0.423070 143 69 72
-0.247036 -0.188071 -0.422609 142 68 71
-0.248577 -0.188401 -0.422150 144 66 66
-0.249633 -0.188434 -0.422554 141 63 63
-0.251179 -0.188764 -0.422097 141 57 59
-0.252728 -0.189095 -0.421640 140 56 58
-0.254280 -0.189425 -0.421185 133 59 60
-0.255835 -0.189755 -0.420731 132 58 59
-0.256897 -0.189789 -0.421138 96 68 77
-0.258457 -0.190119 -0.420686 85 57 66
-0.260020 -0.190450 -0.420235 130 118 98
-0.261085 -0.190484 -0.420643 161 149 129
-0.262652 -0.190814 -0.420193 167 148 94
-0.264223 -0.191145 -0.419745 166 147 93
-0.265291 -0.191179 -0.420154 171 144 91
-0.266866 -0.191510 -0.419708 169 142 89
-0.268445 -0.191841 -0.419263 114 53 31
-0.270026 -0.192172 -0.418819 117 56 34
-0.271611 -0.192503 -0.418376 123 48 40
-0.273198 -0.192835 -0.417935 123 48 40
-0.274789 -0.193166 -0.417494 126 49 44
-0.276383 -0.193498 -0.417055 126 49 44
-0.277979 -0.193829 -0.416617 123 50 46
-0.279579 -0.194161 -0.416180 123 50 46
-0.281182 -0.194493 -0.415744 121 52 47
-0.282788 -0.194825 -0.415310 121 52 47
-0.284398 -0.195157 -0.414876 119 53 49
-0.286010 -0.195489 -0.414444 120 54 50
-0.287625 -0.195821 -0.414013 119 53 49
-0.289244 -0.196153 -0.413584 118 52 48
-0.290865 -0.196486 -0.413155 117 52 50
-0.292490 -0.196818 -0.412727 115 50 48
-0.294117 -0.197151 -0.412301 115 53 52
-0.295748 -0.197484 -0.411876 115 53 52
-0.299528 -0.199008 -0.408076 107 57 63
-0.301171 -0.199341 -0.407655 112 62 68
-0.302817 -0.199674 -0.407236 122 90 97
-0.300677 -0.197921 -0.412715 115 83 90
-0.302319 -0.198254 -0.412294 121 96 104
-0.307774 -0.200674 -0.405986 159 134 142
-0.309433 -0.201008 -0.405571 169 157 157
-0.311094 -0.201342 -0.405158 173 161 161
-0.312759 -0.201675 -0.404746 174 136 140
-0.314426 -0.202009 -0.404335 103 65 69
-0.316097 -0.202343 -0.403925 113 51 52
-0.317771 -0.202677 -0.403517 112 50 51
-0.319448 -0.203011 -0.403109 114 48 44
-0.321127 -0.203346 -0.402703 114 48 44
-0.322810 -0.203680 -0.402298 118 55 41
-0.324497 -0.204015 -0.401894 125 62 48
-0.326186 -0.204349 -0.401491 127 72 41
-0.327878 -0.204684 -0.401090 158 103 72
-0.329573 -0.205018 -0.400689 158 109 68
-0.331838 -0.205652 -0.399457 156 107 66
-0.332973 -0.205688 -0.399892 156 107 68
-0.334678 -0.206023 -0.399495 151 102 63
-0.336385 -0.206358 -0.399100 150 95 76
-0.338668 -0.206993 -0.397875 124 69 50
-0.340383 -0.207328 -0.397482 110 52 48
-0.342102 -0.207664 -0.397091 107 49 45
-0.343823 -0.207999 -0.396700 106 53 51
-0.346126 -0.208634 -0.395483 109 56 54
-0.347855 -0.208970 -0.395096 104 59 62
-0.350169 -0.209605 -0.393883 102 57 60
-0.177835 -0.192138 -0.368209 114 86 83
-0.178184 -0.191590 -0.370444 135 107 104
-0.178527 -0.191042 -0.372676 140 124 119
-0.178864 -0.190494 -0.374907 143 127 122
-0.178818 -0.189655 -0.378040 139 135 128
-0.179141 -0.189106 -0.380265 144 140 133
-0.174898 -0.185060 -0.393347 143 143 137
-0.175190 -0.184511 -0.395560 143 143 137
-0.175093 -0.183669 -0.398674 141 141 135
-0.175372 -0.183120 -0.400882 141 141 135
-0.175644 -0.182570 -0.403087 141 141 135
-0.175910 -0.182019 -0.405290 139 139 133
-0.175781 -0.181177 -0.408392 141 141 135
-0.176424 -0.180918 -0.409689 141 141 135
-0.176672 -0.180367 -0.411885 140 141 137
-0.177307 -0.180108 -0.413179 142 143 139
-0.177544 -0.179557 -0.415371 142 143 139
-0.178172 -0.179297 -0.416661 147 148 144
-0.178797 -0.179038 -0.417951 153 154 148
-0.179419 -0.178778 -0.419240 152 153 147
-0.180037 -0.178519 -0.420527 149 126 123
-0.180653 -0.178259 -0.421813 93 70 67
-0.181265 -0.177999 -0.423099 127 67 65
-0.182281 -0.178031 -0.423487 107 47 45
-0.182888 -0.177771 -0.424771 111 38 39
-0.183902 -0.177803 -0.425159 109 36 37
-0.184916 -0.177836 -0.425547 111 38 36
-0.185930 -0.177868 -0.425936 111 38 36
-0.186944 -0.177900 -0.426324 111 38 36
-0.187958 -0.177932 -0.426713 112 39 37
-0.188972 -0.177965 -0.427101 112 39 37
-0.189986 -0.177997 -0.427489 113 40 38
-0.191000 -0.178029 -0.427878 113 40 38
-0.192014 -0.178061 -0.428266 116 43 41
-0.193451 -0.178387 -0.427766 121 44 39
-0.194467 -0.178419 -0.428155 129 52 47
-0.195482 -0.178451 -0.428544 139 52 48
-0.196926 -0.178776 -0.428046 141 54 50
-0.197943 -0.178809 -0.428436 143 55 58
-0.199391 -0.179134 -0.427940 145 57 60
-0.200409 -0.179167 -0.428330 135 66 77
-0.201862 -0.179492 -0.427836 154 85 96
-0.202882 -0.179525 -0.428226 168 148 151
-0.204339 -0.179850 -0.427734 189 169 172
-0.205799 -0.180176 -0.427243 179 179 175
-0.206823 -0.180209 -0.427635 177 177 173
-0.207846 -0.180241 -0.428027 178 179 175
-0.209312 -0.180567 -0.427538 182 183 179
-0.210782 -0.180893 -0.427050 139 128 136
-0.212254 -0.181220 -0.426563 165 154 162
-0.213282 -0.181252 -0.426957 183 186 189
-0.214759 -0.181579 -0.426472 178 181 184
-0.215788 -0.181611 -0.426867 188 187 191
-0.217270 -0.181938 -0.426384 136 135 139
-0.218755 -0.182264 -0.425902 144 137 146
-0.220243 -0.182591 -0.425421 189 182 191
-0.221734 -0.182918 -0.424942 171 185 187
-0.223228 -0.183245 -0.424463 169 183 185
-0.224725 -0.183572 -0.423986 186 185 189
-0.226225 -0.183899 -0.423510 118 117 121
-0.227265 -0.183932 -0.423909 118 76 92
-0.228770 -0.184259 -0.423435 137 95 111
-0.230278 -0.184587 -0.422962 133 81 98
-0.231789 -0.184914 -0.422490 132 80 97
-0.232834 -0.184947 -0.422890 145 93 98
-0.234349 -0.185275 -0.422420 164 112 117
-0.235868 -0.185603 -0.421951 180 127 123
-0.237390 -0.185930 -0.421484 160 107 103
-0.238915 -0.186258 -0.421017 150 85 83
-0.240443 -0.186586 -0.420552 140 75 73
-0.241974 -0.186914 -0.420088 145 71 74
-0.243508 -0.187242 -0.419625 146 72 75
-0.245045 -0.187571 -0.419163 145 68 70
-0.247068 -0.188194 -0.417837 144 67 69
-0.248128 -0.188227 -0.418243 143 67 64
-0.247730 -0.187377 -0.421242 141 65 62
-0.249273 -0.187705 -0.420782 139 67 58
-0.250330 -0.187739 -0.421187 138 66 57
-0.251878 -0.188067 -0.420730 138 63 55
-0.253429 -0.188396 -0.420273 140 65 57
-0.254983 -0.188725 -0.419818 131 64 63
-0.256540 -0.189054 -0.419364 127 60 59
-0.257604 -0.189088 -0.419771 92 69 79
-0.259165 -0.189417 -0.419319 84 61 71
-0.260730 -0.189746 -0.418867 141 130 105
-0.261796 -0.189780 -0.419276 156 145 120
-0.263366 -0.190109 -0.418826 167 148 92
-0.264938 -0.190438 -0.418378 166 147 91
-0.266008 -0.190472 -0.418788 169 145 91
-0.267585 -0.190802 -0.418341 170 146 92
-0.269165 -0.191132 -0.417896 120 62 37
-0.270748 -0.191461 -0.417452 115 57 32
-0.272335 -0.191791 -0.417009 123 48 42
-0.273924 -0.192121 -0.416567 123 48 42
-0.275517 -0.192451 -0.416127 126 48 46
-0.277112 -0.192781 -0.415687 126 48 46
-0.278711 -0.193111 -0.415249 125 49 46
-0.280313 -0.193442 -0.414812 126 50 47
-0.281918 -0.193772 -0.414376 123 51 47
-0.283526 -0.194103 -0.413942 124 52 48
-0.285137 -0.194433 -0.413508 121 52 49
-0.286751 -0.194764 -0.413076 122 53 50
-0.288368 -0.195095 -0.412645 119 52 51
-0.289988 -0.195426 -0.412215 119 52 51
-0.291611 -0.195757 -0.411786 115 53 54
-0.295367 -0.197273 -0.407972 116 54 55
-0.297003 -0.197604 -0.407548 113 54 59
-0.298106 -0.197640 -0.407971 112 53 58
-0.300283 -0.198268 -0.406704 149 112 121
-0.301928 -0.198599 -0.406283 193 156 165
-0.303576 -0.198931 -0.405864 168 164 167
-0.305227 -0.199263 -0.405446 174 170 173
-0.306338 -0.199298 -0.405871 172 171 171
-0.307994 -0.199630 -0.405455 166 165 165
-0.309652 -0.199962 -0.405039 167 159 158
-0.311862 -0.200591 -0.403785 173 165 164
-0.313528 -0.200924 -0.403372 154 114 119
-0.314647 -0.200959 -0.403801 100 60 65
-0.316318 -0.201292 -0.403390 113 51 50
-0.318546 -0.201922 -0.402143 115 53 52
-0.319669 -0.201957 -0.402573 111 49 32
-0.321349 -0.202290 -0.402166 135 73 56
-0.323033 -0.202623 -0.401760 159 104 69
-0.324719 -0.202956 -0.401356 157 102 67
-0.326409 -0.203289 -0.400952 153 104 63
-0.328101 -0.203622 -0.400550 153 104 63
-0.329797 -0.203956 -0.400149 156 109 67
-0.331495 -0.204289 -0.399749 155 108 66
-0.333197 -0.204623 -0.399350 141 87 61
-0.334902 -0.204956 -0.398953 125 71 45
-0.337181 -0.205587 -0.397724 118 61 52
-0.338893 -0.205921 -0.397330 115 58 49
-0.340609 -0.206255 -0.396936 109 51 49
-0.342328 -0.206589 -0.396544 107 49 47
-0.344050 -0.206923 -0.396153 105 52 50
-0.345774 -0.207258 -0.395763 109 56 54
-0.347502 -0.207592 -0.395375 104 59 62
-0.349815 -0.208224 -0.394159 108 63 66
-0.178051 -0.191111 -0.367687 119 84 81
-0.178399 -0.190566 -0.369923 128 93 90
-0.178742 -0.190022 -0.372157 137 111 109
-0.179078 -0.189476 -0.374389 147 121 119
-0.174504 -0.185162 -0.388407 138 131 123
-0.174808 -0.184616 -0.390626 144 137 129
-0.175106 -0.184070 -0.392843 145 143 135
-0.175398 -0.183523 -0.395057 143 141 133
-0.175683 -0.182976 -0.397269 141 141 135
-0.175963 -0.182429 -0.399479 141 141 135
-0.175850 -0.181592 -0.402590 141 141 135
-0.176115 -0.181044 -0.404794 139 139 133
-0.176375 -0.180497 -0.406996 141 141 135
-0.177019 -0.180239 -0.408295 140 140 134
-0.177268 -0.179692 -0.410492 141 141 137
-0.177904 -0.179434 -0.411788 141 141 137
-0.178142 -0.178886 -0.413982 143 144 140
-0.178374 -0.178337 -0.416173 150 151 147
-0.179397 -0.178370 -0.416565 154 154 148
-0.179620 -0.177821 -0.418753 154 154 148
-0.180238 -0.177563 -0.420041 152 129 126
-0.180853 -0.177304 -0.421328 93 70 67
-0.181870 -0.177337 -0.421717 127 67 65
-0.182481 -0.177078 -0.423003 107 47 45
-0.183496 -0.177110 -0.423392 111 38 39
-0.184512 -0.177143 -0.423781 110 37 38
-0.185528 -0.177175 -0.424170 111 37 38
-0.186543 -0.177207 -0.424558 111 37 38
-0.187559 -0.177240 -0.424947 111 38 36
-0.188574 -0.177272 -0.425336 112 39 37
-0.189590 -0.177304 -0.425725 112 39 37
-0.190605 -0.177337 -0.426114 113 40 38
-0.191621 -0.177369 -0.426503 113 40 38
-0.192636 -0.177401 -0.426892 116 43 41
-0.194075 -0.177725 -0.426392 120 44 41
-0.195092 -0.177757 -0.426782 127 51 48
-0.196109 -0.177790 -0.427171 137 53 50
-0.197554 -0.178113 -0.426673 139 55 52
-0.198573 -0.178146 -0.427063 142 57 64
-0.200023 -0.178470 -0.426567 136 51 58
-0.201043 -0.178502 -0.426958 153 113 126
-0.202497 -0.178826 -0.426464 205 165 178
-0.203519 -0.178859 -0.426855 180 183 184
-0.204978 -0.179183 -0.426362 179 182 183
-0.206440 -0.179508 -0.425871 173 172 176
-0.207465 -0.179540 -0.426263 148 147 151
-0.208490 -0.179573 -0.426656 176 179 182
-0.209958 -0.179898 -0.426167 180 183 186
-0.211429 -0.180222 -0.425679 155 151 156
-0.212457 -0.180255 -0.426073 158 154 159
-0.213933 -0.180580 -0.425587 174 184 189
-0.215412 -0.180905 -0.425102 173 183 188
-0.216443 -0.180938 -0.425497 174 184 189
-0.217926 -0.181263 -0.425013 139 149 154
-0.219413 -0.181588 -0.424532 144 146 152
-0.220903 -0.181913 -0.424051 181 183 189
-0.222396 -0.182239 -0.423571 173 185 187
-0.223891 -0.182564 -0.423093 173 185 187
-0.225390 -0.182890 -0.422616 193 182 188
-0.226892 -0.183215 -0.422139 107 96 102
-0.227934 -0.183248 -0.422538 134 72 93
-0.229441 -0.183574 -0.422064 134 72 93
-0.230951 -0.183900 -0.421591 126 69 80
-0.231995 -0.183934 -0.421991 165 108 119
-0.233510 -0.184260 -0.421520 188 138 133
-0.235027 -0.184586 -0.421050 160 110 105
-0.236548 -0.184912 -0.420581 153 91 88
-0.238071 -0.185238 -0.420113 141 79 76
-0.239598 -0.185565 -0.419646 145 69 68
-0.241128 -0.185892 -0.419181 145 69 68
-0.242660 -0.186218 -0.418717 146 68 66
-0.244196 -0.186545 -0.418253 145 67 65
-0.245735 -0.186872 -0.417792 142 67 57
-0.247277 -0.187199 -0.417331 144 69 59
-0.248338 -0.187233 -0.417737 152 83 60
-0.249884 -0.187560 -0.417278 166 97 74
-0.251434 -0.187887 -0.416820 164 99 68
-0.251028 -0.187040 -0.419819 164 99 68
-0.252578 -0.187367 -0.419361 154 84 65
-0.254131 -0.187695 -0.418904 149 79 60
-0.255193 -0.187728 -0.419311 132 70 69
-0.256750 -0.188056 -0.418856 124 62 61
-0.258311 -0.188383 -0.418403 90 69 80
-0.259874 -0.188711 -0.417950 86 65 76
-0.260941 -0.188745 -0.418358 150 138 109
-0.262509 -0.189073 -0.417908 157 145 116
-0.264080 -0.189401 -0.417458 167 148 92
-0.265654 -0.189729 -0.417010 166 147 91
-0.266725 -0.189763 -0.417420 169 145 89
-0.268304 -0.190091 -0.416973 170 146 90
-0.269886 -0.190419 -0.416528 128 74 46
-0.270960 -0.190453 -0.416939 107 53 25
-0.272547 -0.190782 -0.416496 123 48 42
-0.274137 -0.191110 -0.416053 125 50 44
-0.275730 -0.191439 -0.415612 125 49 46
-0.277326 -0.191767 -0.415172 125 49 46
-0.278925 -0.192096 -0.414733 125 49 46
-0.280527 -0.192425 -0.414295 126 50 47
-0.282132 -0.192754 -0.413859 124 52 50
-0.283740 -0.193083 -0.413423 125 53 51
-0.285351 -0.193412 -0.412989 122 52 52
-0.287492 -0.194036 -0.411706 123 53 53
-0.289111 -0.194366 -0.411275 119 53 58
-0.292322 -0.195580 -0.408299 122 56 61
-0.292358 -0.195025 -0.410416 126 78 82
-0.293987 -0.195355 -0.409988 112 64 68
-0.297755 -0.196864 -0.406175 121 76 81
-0.298860 -0.196899 -0.406598 104 59 64
-0.300502 -0.197229 -0.406175 169 140 146
-0.302147 -0.197560 -0.405754 194 165 171
-0.303795 -0.197890 -0.405334 162 161 161
-0.305446 -0.198220 -0.404915 165 164 164
-0.307101 -0.198551 -0.404497 171 167 168
-0.308758 -0.198882 -0.404081 177 173 174
-0.310419 -0.199212 -0.403666 169 147 151
-0.312082 -0.199543 -0.403251 125 103 107
-0.313749 -0.199874 -0.402838 118 68 72
-0.315419 -0.200205 -0.402427 114 64 68
-0.317092 -0.200536 -0.402016 127 71 55
-0.318768 -0.200867 -0.401606 134 78 62
-0.319891 -0.200903 -0.402037 161 104 72
-0.321571 -0.201235 -0.401629 155 98 66
-0.323814 -0.201862 -0.400385 152 100 60
-0.324942 -0.201898 -0.400817 153 101 61
-0.327193 -0.202525 -0.399577 158 106 66
-0.328324 -0.202561 -0.400010 159 107 67
-0.330020 -0.202893 -0.399608 132 78 50
-0.332286 -0.203521 -0.398373 117 63 35
-0.333989 -0.203853 -0.397974 119 66 51
-0.335696 -0.204185 -0.397577 118 65 50
-0.337406 -0.204517 -0.397180 114 60 52
-0.339119 -0.204850 -0.396785 110 56 48
-0.340835 -0.205182 -0.396391 107 52 49
-0.342554 -0.205515 -0.395998 105 50 47
-0.344276 -0.205848 -0.395606 105 52 50
-0.346001 -0.206180 -0.395215 109 56 54
-0.347729 -0.206513 -0.394826 104 59 64
-0.351788 -0.208032 -0.391124 107 62 67
-0.173810 -0.186625 -0.378084 118 81 78
-0.174139 -0.186083 -0.380315 127 90 87
-0.174463 -0.185540 -0.382543 125 89 89
-0.174780 -0.184997 -0.384769 149 113 113
-0.175091 -0.184454 -0.386992 137 128 121
-0.175396 -0.183911 -0.389214 142 133 126
-0.175314 -0.183079 -0.392339 142 140 132
-0.175605 -0.182535 -0.394555 143 141 133
-0.175890 -0.181991 -0.396768 141 141 135
-0.176169 -0.181447 -0.398980 141 141 135
-0.176442 -0.180903 -0.401188 143 143 137
-0.176320 -0.180070 -0.404298 143 143 137
-0.176969 -0.179814 -0.405599 143 143 137
-0.177223 -0.179269 -0.407801 140 140 134
-0.177471 -0.178724 -0.410000 141 141 135
-0.178108 -0.178468 -0.411296 143 143 137
-0.178345 -0.177922 -0.413492 144 144 138
-0.178974 -0.177666 -0.414785 152 152 146
-0.179599 -0.177409 -0.416076 154 154 148
-0.179821 -0.176864 -0.418266 154 154 148
-0.180439 -0.176607 -0.419555 150 127 124
-0.181458 -0.176639 -0.419945 93 70 67
-0.182071 -0.176382 -0.421232 127 67 65
-0.182681 -0.176125 -0.422518 104 44 42
-0.183697 -0.176157 -0.422907 111 38 39
-0.184712 -0.176190 -0.423296 110 37 38
-0.185728 -0.176222 -0.423685 110 36 37
-0.186743 -0.176254 -0.424074 111 37 38
-0.187759 -0.176287 -0.424463 111 37 38
-0.188775 -0.176319 -0.424852 111 37 38
-0.189790 -0.176351 -0.425240 112 39 37
-0.190806 -0.176383 -0.425629 113 40 38
-0.191821 -0.176416 -0.426018 113 40 38
-0.193259 -0.176738 -0.425517 114 41 39
-0.194276 -0.176770 -0.425906 119 43 42
-0.195293 -0.176803 -0.426296 126 50 49
-0.196737 -0.177125 -0.425797 139 51 52
-0.197756 -0.177157 -0.426187 142 54 55
-0.199204 -0.177480 -0.425689 139 59 69
-0.200656 -0.177803 -0.425193 156 76 86
-0.201677 -0.177835 -0.425585 194 181 187
-0.203133 -0.178158 -0.425090 189 176 182
-0.204157 -0.178190 -0.425482 174 181 185
-0.205618 -0.178513 -0.424989 177 184 188
-0.207081 -0.178836 -0.424498 114 104 116
-0.208108 -0.178869 -0.424891 108 98 110
-0.209134 -0.178902 -0.425284 182 182 186
-0.210604 -0.179225 -0.424795 186 186 190
-0.212077 -0.179548 -0.424307 146 141 149
-0.213107 -0.179581 -0.424701 154 149 157
-0.214584 -0.179904 -0.424215 180 190 195
-0.216065 -0.180228 -0.423730 174 184 189
-0.217098 -0.180261 -0.424125 170 184 188
-0.218583 -0.180585 -0.423642 165 179 183
-0.220072 -0.180908 -0.423160 170 177 181
-0.221563 -0.181232 -0.422679 176 183 187
-0.223058 -0.181556 -0.422199 188 184 189
-0.224556 -0.181880 -0.421721 183 179 184
-0.225596 -0.181913 -0.422119 153 113 128
-0.227560 -0.182529 -0.420767 116 76 91
-0.228603 -0.182562 -0.421167 128 70 84
-0.230112 -0.182887 -0.420692 140 82 96
-0.231624 -0.183211 -0.420219 139 80 83
-0.232670 -0.183244 -0.420620 181 122 125
-0.234186 -0.183569 -0.420148 155 90 88
-0.235705 -0.183894 -0.419678 139 74 72
-0.237228 -0.184219 -0.419209 145 76 71
-0.238753 -0.184544 -0.418741 144 75 70
-0.240282 -0.184869 -0.418274 140 70 56
-0.241813 -0.185194 -0.417808 145 75 61
-0.243348 -0.185519 -0.417344 147 81 57
-0.244886 -0.185845 -0.416881 164 98 74
-0.246426 -0.186170 -0.416419 169 110 72
-0.247970 -0.186496 -0.415958 176 117 79
-0.249032 -0.186529 -0.416364 175 120 74
-0.250581 -0.186855 -0.415905 169 114 68
-0.252132 -0.187181 -0.415447 170 110 68
-0.251727 -0.186339 -0.418449 162 102 60
-0.253279 -0.186665 -0.417991 153 84 61
-0.254834 -0.186990 -0.417534 151 82 59
-0.255897 -0.187024 -0.417941 131 71 69
-0.257456 -0.187350 -0.417486 122 62 60
-0.259018 -0.187676 -0.417033 88 70 80
-0.260584 -0.188003 -0.416580 84 66 76
-0.261652 -0.188037 -0.416989 154 139 109
-0.263222 -0.188363 -0.416538 160 145 115
-0.264795 -0.188690 -0.416088 167 148 92
-0.266371 -0.189016 -0.415640 167 148 92
-0.267444 -0.189050 -0.416051 169 148 88
-0.269024 -0.189377 -0.415604 172 151 91
-0.270608 -0.189704 -0.415158 143 93 59
-0.271684 -0.189738 -0.415570 105 55 21
-0.273272 -0.190065 -0.415126 123 48 42
-0.274864 -0.190392 -0.414684 125 50 44
-0.276459 -0.190719 -0.414242 125 49 46
-0.278056 -0.191047 -0.413802 125 49 46
-0.279657 -0.191374 -0.413363 124 51 49
-0.281261 -0.191702 -0.412925 125 52 50
-0.282868 -0.192029 -0.412488 120 53 54
-0.284478 -0.192357 -0.412053 119 52 53
-0.286091 -0.192685 -0.411619 114 57 64
-0.288234 -0.193306 -0.410335 111 54 61
-0.289855 -0.193634 -0.409904 102 59 65
-0.291479 -0.193962 -0.409473 159 116 122
-0.294700 -0.195170 -0.406498 186 167 165
-0.296335 -0.195499 -0.406072 180 161 159
-0.297973 -0.195827 -0.405647 179 143 147
-0.299614 -0.196156 -0.405223 104 68 72
-0.301258 -0.196485 -0.404801 159 125 131
-0.302366 -0.196520 -0.405225 191 157 163
-0.304014 -0.196849 -0.404804 168 153 154
-0.305666 -0.197178 -0.404385 173 158 159
-0.307320 -0.197507 -0.403966 130 103 108
-0.308978 -0.197836 -0.403549 110 83 88
-0.310639 -0.198165 -0.403133 113 68 75
-0.312303 -0.198495 -0.402718 120 75 82
-0.313970 -0.198824 -0.402304 132 83 71
-0.315640 -0.199154 -0.401892 140 91 79
-0.317313 -0.199483 -0.401480 144 93 64
-0.318989 -0.199813 -0.401070 141 90 61
-0.320669 -0.200143 -0.400661 153 99 61
-0.322351 -0.200473 -0.400253 154 100 62
-0.324036 -0.200803 -0.399847 156 103 68
-0.325725 -0.201133 -0.399441 141 88 53
-0.327417 -0.201464 -0.399037 124 70 46
-0.329111 -0.201794 -0.398634 122 68 44
-0.330809 -0.202124 -0.398232 124 66 52
-0.332510 -0.202455 -0.397831 122 64 50
-0.334214 -0.202786 -0.397431 115 62 56
-0.335921 -0.203116 -0.397033 111 58 52
-0.337059 -0.203153 -0.397469 122 76 72
-0.339344 -0.203778 -0.396240 124 78 74
-0.340486 -0.203815 -0.396677 106 51 50
-0.342204 -0.204146 -0.396283 105 50 49
-0.343924 -0.204477 -0.395890 105 51 52
-0.345648 -0.204808 -0.395498 109 55 56
-0.350279 -0.206614 -0.390958 104 61 65
-0.352017 -0.206946 -0.390571 116 73 77
-0.174022 -0.185616 -0.377571 123 81 78
-0.174724 -0.185363 -0.378893 126 84 81
-0.175048 -0.184823 -0.381123 126 87 85
-0.175367 -0.184283 -0.383351 139 100 98
-0.175301 -0.183456 -0.386485 139 125 119
-0.175605 -0.182916 -0.388708 143 129 123
-0.175904 -0.182375 -0.390928 138 136 128
-0.176196 -0.181835 -0.393146 142 140 132
-0.176482 -0.181294 -0.395361 141 142 133
-0.176376 -0.180465 -0.398480 143 144 135
-0.176648 -0.179924 -0.400690 144 144 138
-0.176914 -0.179382 -0.402898 144 144 138
-0.177174 -0.178841 -0.405104 143 143 137
-0.177427 -0.178299 -0.407307 140 140 134
-0.178068 -0.178044 -0.408606 141 141 135
-0.178311 -0.177502 -0.410805 140 140 134
-0.178547 -0.176959 -0.413002 144 144 138
-0.179176 -0.176704 -0.414295 147 147 141
-0.179801 -0.176449 -0.415588 156 153 148
-0.180423 -0.176194 -0.416879 157 154 149
-0.181043 -0.175939 -0.418169 151 125 125
-0.181659 -0.175683 -0.419458 96 70 70
-0.182272 -0.175428 -0.420746 127 67 65
-0.183289 -0.175460 -0.421136 104 44 42
-0.184306 -0.175492 -0.421525 110 37 38
-0.185323 -0.175525 -0.421915 109 36 37
-0.186340 -0.175557 -0.422304 110 36 37
-0.187357 -0.175589 -0.422694 111 37 38
-0.188374 -0.175622 -0.423084 111 37 38
-0.189391 -0.175654 -0.423473 111 37 38
-0.190408 -0.175686 -0.423863 112 39 37
-0.191425 -0.175719 -0.424252 113 40 38
-0.192443 -0.175751 -0.424642 112 39 37
-0.193460 -0.175783 -0.425031 114 41 39
-0.194901 -0.176104 -0.424530 118 42 41
-0.195919 -0.176137 -0.424920 123 47 46
-0.197365 -0.176458 -0.424421 139 51 54
-0.198385 -0.176490 -0.424812 143 55 58
-0.199836 -0.176811 -0.424314 131 56 69
-0.201289 -0.177133 -0.423818 195 120 133
-0.202312 -0.177165 -0.424210 188 187 191
-0.203335 -0.177198 -0.424602 181 180 184
-0.204795 -0.177519 -0.424108 172 182 185
-0.205820 -0.177552 -0.424500 167 177 180
-0.207284 -0.177873 -0.424008 106 101 109
-0.208751 -0.178195 -0.423517 132 127 135
-0.209779 -0.178228 -0.423910 192 188 191
-0.211251 -0.178549 -0.423421 182 178 181
-0.212726 -0.178871 -0.422933 112 90 104
-0.213757 -0.178904 -0.423328 147 125 139
-0.215236 -0.179226 -0.422841 185 190 195
-0.216719 -0.179548 -0.422356 176 181 186
-0.217753 -0.179581 -0.422752 170 184 186
-0.219240 -0.179904 -0.422269 170 184 186
-0.220731 -0.180226 -0.421787 182 177 185
-0.221768 -0.180259 -0.422184 147 142 150
-0.223263 -0.180582 -0.421703 162 124 139
-0.224761 -0.180904 -0.421224 133 95 110
-0.226262 -0.181227 -0.420746 120 71 84
-0.227766 -0.181550 -0.420269 136 87 100
-0.228809 -0.181583 -0.420668 171 120 122
-0.230318 -0.181906 -0.420193 186 135 137
-0.231830 -0.182229 -0.419719 151 86 86
-0.232876 -0.182262 -0.420120 143 78 78
-0.234393 -0.182586 -0.419648 143 70 68
-0.235912 -0.182909 -0.419177 142 69 67
-0.237435 -0.183232 -0.418707 143 80 57
-0.238961 -0.183556 -0.418238 168 105 82
-0.240490 -0.183880 -0.417771 173 118 76
-0.242022 -0.184203 -0.417304 173 118 76
-0.243557 -0.184527 -0.416839 174 123 76
-0.245095 -0.184851 -0.416375 171 120 73
-0.246636 -0.185175 -0.415912 172 122 72
-0.248180 -0.185499 -0.415451 173 123 73
-0.249242 -0.185533 -0.415857 171 121 69
-0.250790 -0.185857 -0.415398 169 119 67
-0.252342 -0.186182 -0.414939 169 109 69
-0.251936 -0.185344 -0.417943 161 101 61
-0.253488 -0.185668 -0.417484 152 82 59
-0.255043 -0.185993 -0.417027 150 80 57
-0.256601 -0.186317 -0.416570 129 71 71
-0.258163 -0.186642 -0.416115 118 60 60
-0.259727 -0.186967 -0.415661 86 69 81
-0.261294 -0.187291 -0.415208 80 63 75
-0.262363 -0.187326 -0.415618 159 144 114
-0.263935 -0.187651 -0.415167 161 146 116
-0.265510 -0.187976 -0.414717 167 148 90
-0.267088 -0.188301 -0.414268 167 148 90
-0.268162 -0.188335 -0.414680 170 147 88
-0.269745 -0.188660 -0.414233 173 150 91
-0.271331 -0.188986 -0.413787 156 108 71
-0.272408 -0.189020 -0.414200 99 51 14
-0.273998 -0.189346 -0.413756 121 49 40
-0.275592 -0.189671 -0.413313 121 49 40
-0.277188 -0.189997 -0.412871 125 49 46
-0.278788 -0.190323 -0.412431 125 49 46
-0.280390 -0.190649 -0.411992 124 50 51
-0.281996 -0.190975 -0.411554 121 47 48
-0.283605 -0.191301 -0.411117 131 81 87
-0.285217 -0.191628 -0.410681 174 124 130
-0.286832 -0.191954 -0.410247 144 122 124
-0.290559 -0.193448 -0.406409 126 104 106
-0.292186 -0.193774 -0.405979 167 154 158
-0.293816 -0.194101 -0.405550 178 165 169
-0.295450 -0.194428 -0.405123 172 162 160
-0.297086 -0.194755 -0.404697 179 169 167
-0.298726 -0.195082 -0.404272 166 134 139
-0.300368 -0.195410 -0.403848 96 64 69
-0.301476 -0.195445 -0.404272 147 102 109
-0.303124 -0.195772 -0.403850 145 100 107
-0.304774 -0.196100 -0.403429 121 81 84
-0.306427 -0.196427 -0.403009 115 75 78
-0.308084 -0.196755 -0.402591 123 73 77
-0.309744 -0.197083 -0.402173 131 81 85
-0.310859 -0.197118 -0.402600 136 89 78
-0.313072 -0.197739 -0.401342 138 91 80
-0.314741 -0.198067 -0.400928 141 94 70
-0.316413 -0.198395 -0.400515 143 96 72
-0.317534 -0.198431 -0.400945 146 96 64
-0.319766 -0.199052 -0.399693 150 100 68
-0.321447 -0.199380 -0.399284 150 97 64
-0.323131 -0.199709 -0.398876 129 76 43
-0.324819 -0.200038 -0.398469 126 69 50
-0.325948 -0.200073 -0.398902 122 65 46
-0.327640 -0.200402 -0.398497 118 61 52
-0.329335 -0.200731 -0.398093 118 61 52
-0.331033 -0.201060 -0.397690 114 61 59
-0.332734 -0.201389 -0.397289 106 53 51
-0.334438 -0.201719 -0.396889 96 63 62
-0.335575 -0.201755 -0.397324 138 105 104
-0.337284 -0.202084 -0.396925 162 130 126
-0.338996 -0.202414 -0.396528 130 98 94
-0.340711 -0.202743 -0.396132 103 52 52
-0.342429 -0.203073 -0.395737 103 52 52
-0.344150 -0.203403 -0.395343 106 52 53
-0.348192 -0.204906 -0.391626 110 56 57
-0.349926 -0.205236 -0.391237 105 62 66
-0.352245 -0.205860 -0.390019 127 84 88
-0.174606 -0.184892 -0.376146 122 78 76
-0.174936 -0.184355 -0.378380 126 82 80
-0.175260 -0.183818 -0.380612 129 82 83
-0.175577 -0.183281 -0.382841 129 82 83
-0.175511 -0.182458 -0.385977 133 110 107
-0.175815 -0.181921 -0.388201 145 122 119
-0.176112 -0.181383 -0.390423 137 133 126
-0.176404 -0.180846 -0.392643 142 138 131
-0.176689 -0.180307 -0.394860 143 144 135
-0.176968 -0.179769 -0.397074 144 145 136
-0.176854 -0.178945 -0.400192 145 145 139
-0.177119 -0.178406 -0.402402 144 144 138
-0.177769 -0.178153 -0.403705 143 143 137
-0.178023 -0.177614 -0.405910 141 141 135
-0.178272 -0.177075 -0.408113 140 140 134
-0.178909 -0.176822 -0.409411 140 140 134
-0.179147 -0.176282 -0.411610 143 143 137
-0.179776 -0.176029 -0.412905 146 146 140
-0.180403 -0.175775 -0.414199 150 150 144
-0.181026 -0.175521 -0.415491 154 154 148
-0.181647 -0.175268 -0.416783 150 124 122
-0.182264 -0.175014 -0.418073 99 73 71
-0.182878 -0.174760 -0.419362 129 69 67
-0.183897 -0.174792 -0.419752 105 45 43
-0.184916 -0.174824 -0.420143 110 37 38
-0.185934 -0.174857 -0.420533 110 37 38
-0.186953 -0.174889 -0.420923 110 36 37
-0.187971 -0.174922 -0.421313 111 37 38
-0.188990 -0.174954 -0.421703 111 37 38
-0.190009 -0.174986 -0.422093 111 37 38
-0.191027 -0.175019 -0.422483 112 39 37
-0.192046 -0.175051 -0.422873 113 40 38
-0.193065 -0.175084 -0.423264 112 39 37
-0.194083 -0.175116 -0.423654 114 41 39
-0.195526 -0.175435 -0.423153 116 40 39
-0.196546 -0.175468 -0.423543 122 46 45
-0.197994 -0.175787 -0.423044 137 52 54
-0.199016 -0.175820 -0.423435 141 56 58
-0.200468 -0.176140 -0.422937 124 55 66
-0.201923 -0.176460 -0.422441 192 123 134
-0.202948 -0.176492 -0.422833 188 186 193
-0.203972 -0.176525 -0.423226 181 179 186
-0.205434 -0.176845 -0.422732 172 184 186
-0.206460 -0.176877 -0.423125 166 178 180
-0.207926 -0.177198 -0.422632 162 161 163
-0.209395 -0.177518 -0.422141 184 183 185
-0.210425 -0.177551 -0.422535 183 160 170
-0.211898 -0.177871 -0.422046 126 103 113
-0.212929 -0.177904 -0.422441 115 68 86
-0.214408 -0.178224 -0.421953 136 89 107
-0.215889 -0.178545 -0.421467 191 173 181
-0.217374 -0.178866 -0.420981 194 176 184
-0.218409 -0.178899 -0.421378 190 186 191
-0.219898 -0.179220 -0.420894 172 168 173
-0.221391 -0.179541 -0.420412 140 107 122
-0.222429 -0.179574 -0.420810 115 82 97
-0.223926 -0.179895 -0.420329 124 75 88
-0.224966 -0.179928 -0.420727 127 78 91
-0.226468 -0.180249 -0.420249 162 118 118
-0.228435 -0.180859 -0.418894 177 133 133
-0.229480 -0.180892 -0.419294 172 117 116
-0.230990 -0.181214 -0.418819 156 101 100
-0.232504 -0.181536 -0.418345 145 68 72
-0.233552 -0.181569 -0.418746 147 70 74
-0.235070 -0.181891 -0.418274 140 68 61
-0.236592 -0.182213 -0.417803 166 94 87
-0.237643 -0.182246 -0.418205 183 132 87
-0.239169 -0.182568 -0.417736 176 125 80
-0.240698 -0.182890 -0.417268 172 126 70
-0.242230 -0.183213 -0.416800 174 128 72
-0.243765 -0.183535 -0.416335 174 127 74
-0.245785 -0.184147 -0.415000 174 127 74
-0.247328 -0.184469 -0.414537 172 126 70
-0.248389 -0.184503 -0.414944 174 128 72
-0.249937 -0.184826 -0.414483 169 123 67
-0.251488 -0.185149 -0.414023 165 119 63
-0.253041 -0.185472 -0.413564 165 101 65
-0.254598 -0.185795 -0.413106 154 90 54
-0.256158 -0.186118 -0.412650 150 80 57
-0.255747 -0.185284 -0.415654 150 80 57
-0.257307 -0.185607 -0.415198 125 72 70
-0.258870 -0.185930 -0.414742 114 61 59
-0.260436 -0.186254 -0.414288 83 69 80
-0.262005 -0.186577 -0.413835 77 63 74
-0.263076 -0.186611 -0.414245 167 152 122
-0.264650 -0.186935 -0.413794 164 149 119
-0.265722 -0.186969 -0.414205 170 151 93
-0.267300 -0.187293 -0.413756 170 151 93
-0.268882 -0.187617 -0.413307 174 148 88
-0.270466 -0.187941 -0.412860 174 148 88
-0.272054 -0.188265 -0.412415 169 122 82
-0.273132 -0.188299 -0.412828 97 50 10
-0.274725 -0.188623 -0.412384 121 49 42
-0.276320 -0.188948 -0.411941 121 49 42
-0.277918 -0.189272 -0.411499 123 50 48
-0.279520 -0.189596 -0.411058 123 50 48
-0.281124 -0.189921 -0.410619 120 50 54
-0.282732 -0.190246 -0.410181 124 54 58
-0.284343 -0.190571 -0.409744 188 156 161
-0.285956 -0.190895 -0.409308 187 155 160
-0.287573 -0.191220 -0.408873 170 167 164
-0.291303 -0.192707 -0.405032 171 168 165
-0.292932 -0.193032 -0.404602 168 164 165
-0.294034 -0.193067 -0.405024 164 160 161
-0.295667 -0.193393 -0.404596 166 156 154
-0.297304 -0.193718 -0.404169 179 169 167
-0.298944 -0.194044 -0.403743 122 84 86
-0.300587 -0.194370 -0.403319 107 69 71
-0.301695 -0.194405 -0.403743 127 74 72
-0.303343 -0.194731 -0.403320 134 81 79
-0.304993 -0.195057 -0.402899 132 80 71
-0.306647 -0.195383 -0.402478 140 88 79
-0.308304 -0.195710 -0.402059 141 88 71
-0.309964 -0.196036 -0.401641 146 93 76
-0.311079 -0.196071 -0.402068 145 95 72
-0.312744 -0.196398 -0.401651 147 97 74
-0.314411 -0.196725 -0.401236 147 98 70
-0.316082 -0.197051 -0.400822 143 94 66
-0.317756 -0.197378 -0.400409 138 82 58
-0.319988 -0.197996 -0.399156 123 67 43
-0.321113 -0.198032 -0.399587 122 65 46
-0.322796 -0.198359 -0.399178 122 65 46
-0.325041 -0.198978 -0.397930 120 61 54
-0.326171 -0.199014 -0.398363 116 57 50
-0.327863 -0.199341 -0.397957 100 51 52
-0.329558 -0.199668 -0.397552 108 59 60
-0.331257 -0.199996 -0.397149 122 96 94
-0.332958 -0.200324 -0.396747 161 135 133
-0.334094 -0.200360 -0.397182 173 157 152
-0.335800 -0.200688 -0.396781 173 157 152
-0.337509 -0.201015 -0.396382 162 129 130
-0.339221 -0.201344 -0.395984 117 84 85
-0.340361 -0.201380 -0.396420 104 55 56
-0.342078 -0.201708 -0.396024 102 53 54
-0.344376 -0.202328 -0.394796 104 53 53
-0.348420 -0.203825 -0.391076 108 57 57
-0.350154 -0.204153 -0.390686 104 64 67
-0.351890 -0.204482 -0.390297 124 84 87
-0.174819 -0.183881 -0.375631 122 79 74
-0.175148 -0.183347 -0.377867 125 82 77
-0.175471 -0.182813 -0.380100 129 80 79
-0.175788 -0.182279 -0.382331 130 81 80
-0.176099 -0.181745 -0.384560 123 90 89
-0.176404 -0.181210 -0.386786 147 114 113
-0.176321 -0.180391 -0.389919 139 132 126
-0.176612 -0.179856 -0.392139 143 136 130
-0.176896 -0.179321 -0.394358 145 143 135
-0.177175 -0.178786 -0.396574 145 143 135
-0.177060 -0.177966 -0.399694 144 144 138
-0.177324 -0.177430 -0.401905 144 144 138
-0.177974 -0.177179 -0.403209 143 143 137
-0.178228 -0.176642 -0.405415 141 141 135
-0.178475 -0.176106 -0.407620 140 140 134
-0.179112 -0.175854 -0.408919 140 140 134
-0.179350 -0.175318 -0.411119 143 143 137
-0.179979 -0.175066 -0.412415 144 144 138
-0.180605 -0.174813 -0.413709 147 147 141
-0.181228 -0.174561 -0.415003 154 154 148
-0.181848 -0.174309 -0.416295 150 124 122
-0.182465 -0.174056 -0.417586 99 73 71
-0.183486 -0.174089 -0.417977 127 67 65
-0.184098 -0.173836 -0.419266 104 44 42
-0.185117 -0.173868 -0.419656 110 37 38
-0.186135 -0.173901 -0.420046 110 37 38
-0.187154 -0.173933 -0.420437 111 37 38
-0.188173 -0.173966 -0.420827 111 37 38
-0.189191 -0.173998 -0.421217 111 37 38
-0.190210 -0.174030 -0.421607 111 37 38
-0.191228 -0.174063 -0.421997 112 38 39
-0.192247 -0.174095 -0.422387 113 39 40
-0.193266 -0.174128 -0.422777 112 39 37
-0.194707 -0.174446 -0.422275 114 41 39
-0.195727 -0.174478 -0.422665 116 40 39
-0.196748 -0.174510 -0.423056 121 45 44
-0.198195 -0.174829 -0.422556 135 50 52
-0.199646 -0.175147 -0.422057 141 56 58
-0.200670 -0.175179 -0.422449 131 56 69
-0.202125 -0.175498 -0.421952 167 92 105
-0.203150 -0.175530 -0.422344 194 187 196
-0.204610 -0.175849 -0.421849 184 177 186
-0.205636 -0.175882 -0.422242 170 184 186
-0.207101 -0.176200 -0.421748 166 180 182
-0.208129 -0.176233 -0.422142 176 175 177
-0.209599 -0.176552 -0.421650 132 131 133
-0.210628 -0.176585 -0.422044 130 76 94
-0.212102 -0.176904 -0.421554 125 71 89
-0.213579 -0.177223 -0.421065 136 66 84
-0.214612 -0.177255 -0.421460 130 60 78
-0.216093 -0.177575 -0.420973 157 101 114
-0.217578 -0.177894 -0.420487 169 113 126
-0.219066 -0.178213 -0.420002 143 104 113
-0.220103 -0.178246 -0.420399 124 85 94
-0.221595 -0.178566 -0.419916 123 82 92
-0.223091 -0.178886 -0.419434 132 91 101
-0.224131 -0.178919 -0.419832 162 120 117
-0.225631 -0.179239 -0.419352 180 138 135
-0.227135 -0.179559 -0.418873 180 130 125
-0.228641 -0.179879 -0.418395 150 100 95
-0.230150 -0.180199 -0.417919 135 71 66
-0.231663 -0.180519 -0.417443 142 78 73
-0.233179 -0.180839 -0.416969 143 71 62
-0.234228 -0.180873 -0.417371 142 70 61
-0.235748 -0.181193 -0.416898 129 59 40
-0.237271 -0.181514 -0.416427 202 132 113
-0.238324 -0.181547 -0.416830 178 136 81
-0.239852 -0.181868 -0.416361 173 131 76
-0.241383 -0.182189 -0.415892 173 129 70
-0.242917 -0.182509 -0.415425 174 130 71
-0.244454 -0.182830 -0.414959 176 130 74
-0.245994 -0.183152 -0.414494 175 129 73
-0.247537 -0.183473 -0.414030 172 126 68
-0.249084 -0.183794 -0.413568 172 126 68
-0.250633 -0.184115 -0.413107 169 123 67
-0.252186 -0.184437 -0.412647 163 117 61
-0.253741 -0.184759 -0.412188 165 98 63
-0.254809 -0.184792 -0.412597 155 88 53
-0.256369 -0.185114 -0.412139 149 79 56
-0.258426 -0.185724 -0.410818 150 80 57
-0.258013 -0.184894 -0.413824 122 71 71
-0.259577 -0.185216 -0.413368 112 61 61
-0.261145 -0.185538 -0.412914 80 70 82
-0.262716 -0.185860 -0.412461 82 72 84
-0.263789 -0.185894 -0.412872 167 152 122
-0.265364 -0.186217 -0.412420 166 151 121
-0.266438 -0.186251 -0.412832 172 153 95
-0.268018 -0.186573 -0.412382 171 152 94
-0.269602 -0.186896 -0.411934 176 150 90
-0.271188 -0.187218 -0.411487 178 152 92
-0.272778 -0.187541 -0.411041 174 130 89
-0.273858 -0.187575 -0.411454 100 56 15
-0.275452 -0.187898 -0.411010 120 49 40
-0.277049 -0.188221 -0.410567 119 48 39
-0.278649 -0.188544 -0.410125 123 50 46
-0.280252 -0.188867 -0.409684 123 50 46
-0.283939 -0.190345 -0.405823 120 52 58
-0.283468 -0.189514 -0.408807 127 59 65
-0.285081 -0.189837 -0.408369 186 164 168
-0.288795 -0.191316 -0.404518 176 154 158
-0.290420 -0.191639 -0.404086 169 164 162
-0.292048 -0.191963 -0.403654 176 171 169
-0.293679 -0.192287 -0.403224 170 155 156
-0.294782 -0.192322 -0.403647 146 131 132
-0.296417 -0.192646 -0.403219 143 117 115
-0.298056 -0.192971 -0.402791 140 114 112
-0.299162 -0.193006 -0.403215 135 89 81
-0.300806 -0.193330 -0.402790 136 90 82
-0.302452 -0.193655 -0.402366 145 95 74
-0.304102 -0.193979 -0.401943 145 95 74
-0.305754 -0.194304 -0.401521 149 98 73
-0.306867 -0.194339 -0.401947 153 102 77
-0.308524 -0.194664 -0.401527 156 102 76
-0.310184 -0.194989 -0.401108 153 99 73
-0.311847 -0.195314 -0.400690 148 94 70
-0.312964 -0.195350 -0.401118 131 77 53
-0.314632 -0.195675 -0.400702 129 72 53
-0.316856 -0.196290 -0.399444 120 63 44
-0.317977 -0.196325 -0.399874 123 65 49
-0.320210 -0.196941 -0.398619 122 64 48
-0.321335 -0.196976 -0.399050 118 61 54
-0.323018 -0.197302 -0.398640 113 56 49
-0.324704 -0.197628 -0.398231 102 54 58
-0.326394 -0.197954 -0.397824 110 62 66
-0.328086 -0.198280 -0.397417 141 115 115
-0.329782 -0.198606 -0.397012 176 150 150
-0.331481 -0.198932 -0.396608 171 155 152
-0.333182 -0.199258 -0.396205 167 151 148
-0.334318 -0.199294 -0.396640 145 118 121
-0.336024 -0.199620 -0.396238 117 90 93
-0.337734 -0.199947 -0.395838 116 77 84
-0.338872 -0.199983 -0.396274 104 65 72
-0.340586 -0.200310 -0.395876 104 54 58
-0.342303 -0.200636 -0.395479 102 52 56
-0.346338 -0.202125 -0.391750 103 54 55
-0.348067 -0.202452 -0.391358 107 58 59
-0.349800 -0.202780 -0.390967 103 65 69
-0.352119 -0.203398 -0.389745 123 85 89
-0.175031 -0.182870 -0.375117 122 79 74
-0.175360 -0.182339 -0.377354 125 82 77
-0.175683 -0.181808 -0.379589 131 78 76
-0.175999 -0.181277 -0.381821 131 78 76
-0.176309 -0.180746 -0.384052 124 82 81
-0.176613 -0.180214 -0.386279 130 88 87
-0.176911 -0.179682 -0.388505 137 123 119
-0.177203 -0.179150 -0.390728 150 136 132
-0.177104 -0.178335 -0.393856 145 143 135
-0.177382 -0.177802 -0.396074 146 144 136
-0.177654 -0.177270 -0.398289 146 144 136
-0.177919 -0.176737 -0.400502 147 145 137
-0.178570 -0.176487 -0.401807 144 144 138
