ply
format ascii 1.0
element vertex 1259
property float x
property float y
property float z
property uchar red
property uchar green
property uchar blue
end_header
0.106804 -0.088175 0.652000 148 63 49
0.108046 -0.088175 0.652000 145 60 46
0.109288 -0.088175 0.652000 144 57 44
0.110530 -0.088175 0.652000 142 55 42
0.111771 -0.088175 0.652000 143 50 39
0.110933 -0.086552 0.640000 143 50 39
0.112152 -0.086552 0.640000 144 51 40
0.113371 -0.086552 0.640000 147 54 43
0.114949 -0.086823 0.642000 149 56 45
0.116352 -0.086958 0.643000 150 57 46
0.117577 -0.086958 0.643000 146 53 40
0.118987 -0.087093 0.644000 142 49 36
0.120213 -0.087093 0.644000 145 46 35
0.122571 -0.087905 0.650000 143 44 33
0.123810 -0.087905 0.650000 147 40 32
0.125240 -0.088040 0.651000 148 41 33
0.126674 -0.088175 0.652000 151 40 31
0.127916 -0.088175 0.652000 151 40 31
0.129356 -0.088310 0.653000 153 39 31
0.130800 -0.088446 0.654000 153 39 31
0.132046 -0.088446 0.654000 154 40 32
0.133291 -0.088446 0.654000 154 40 32
0.134743 -0.088581 0.655000 154 40 34
0.136198 -0.088716 0.656000 154 40 34
0.137657 -0.088851 0.657000 154 40 34
0.139120 -0.088987 0.658000 154 40 34
0.140373 -0.088987 0.658000 155 38 31
0.141842 -0.089122 0.659000 154 37 30
0.143314 -0.089257 0.660000 156 37 31
0.144133 -0.088987 0.658000 155 36 30
0.145608 -0.089122 0.659000 156 37 31
0.147086 -0.089257 0.660000 157 38 32
0.148568 -0.089392 0.661000 157 38 32
0.150053 -0.089528 0.662000 156 37 31
0.151314 -0.089528 0.662000 156 37 31
0.152575 -0.089528 0.662000 157 38 32
0.154069 -0.089663 0.663000 156 39 32
0.155331 -0.089663 0.663000 155 38 31
0.156830 -0.089798 0.664000 149 40 32
0.158333 -0.089933 0.665000 150 41 33
0.159600 -0.089933 0.665000 131 48 38
0.160867 -0.089933 0.665000 126 43 33
0.162133 -0.089933 0.665000 106 40 36
0.163400 -0.089933 0.665000 100 34 30
0.164914 -0.090069 0.666000 90 35 34
0.165933 -0.089933 0.665000 94 39 38
0.167451 -0.090069 0.666000 92 53 51
0.168720 -0.090069 0.666000 93 54 52
0.059333 -0.083067 0.623000 117 45 34
0.060520 -0.083067 0.623000 119 47 36
0.061707 -0.083067 0.623000 130 48 38
0.062893 -0.083067 0.623000 130 48 38
0.064183 -0.083200 0.624000 131 48 38
0.065371 -0.083200 0.624000 132 49 39
0.066667 -0.083333 0.625000 135 47 39
0.067857 -0.083333 0.625000 137 49 41
0.069048 -0.083333 0.625000 139 51 41
0.070350 -0.083467 0.626000 140 52 42
0.071543 -0.083467 0.626000 143 56 43
0.072851 -0.083600 0.627000 143 56 43
0.074164 -0.083733 0.628000 144 54 40
0.075360 -0.083733 0.628000 145 55 41
0.076678 -0.083867 0.629000 147 56 47
0.079486 -0.085600 0.642000 148 57 48
0.080834 -0.085733 0.643000 149 60 55
0.082187 -0.085867 0.644000 147 58 53
0.083543 -0.086000 0.645000 147 62 62
0.084903 -0.086133 0.646000 142 57 57
0.086133 -0.086133 0.646000 138 65 66
0.087499 -0.086267 0.647000 144 71 72
0.088869 -0.086400 0.648000 136 97 95
0.090242 -0.086533 0.649000 173 134 132
0.091619 -0.086667 0.650000 198 184 178
0.092857 -0.086667 0.650000 198 184 178
0.094095 -0.086667 0.650000 199 181 172
0.095333 -0.086667 0.650000 176 158 149
0.096571 -0.086667 0.650000 178 140 129
0.097810 -0.086667 0.650000 158 120 109
0.099048 -0.086667 0.650000 153 86 71
0.100286 -0.086667 0.650000 147 80 65
0.101524 -0.086667 0.650000 156 74 62
0.100865 -0.085067 0.638000 149 67 55
0.104000 -0.086667 0.650000 149 63 52
0.105238 -0.086667 0.650000 145 59 48
0.106476 -0.086667 0.650000 141 51 39
0.107714 -0.086667 0.650000 139 49 37
0.108952 -0.086667 0.650000 136 43 32
0.110190 -0.086667 0.650000 135 42 31
0.111429 -0.086667 0.650000 136 41 33
0.110587 -0.085067 0.638000 139 44 36
0.111802 -0.085067 0.638000 142 47 39
0.113194 -0.085200 0.639000 142 47 39
0.114590 -0.085333 0.640000 142 47 39
0.115990 -0.085467 0.641000 142 47 39
0.117394 -0.085600 0.642000 144 47 35
0.118617 -0.085600 0.642000 143 46 34
0.120027 -0.085733 0.643000 148 43 32
0.122194 -0.086400 0.648000 147 42 31
0.123619 -0.086533 0.649000 150 39 30
0.125048 -0.086667 0.650000 151 40 31
0.126286 -0.086667 0.650000 153 39 31
0.127720 -0.086800 0.651000 153 39 31
0.129158 -0.086933 0.652000 155 38 31
0.130600 -0.087067 0.653000 155 38 31
0.131844 -0.087067 0.653000 155 38 31
0.133088 -0.087067 0.653000 156 39 32
0.134743 -0.087333 0.655000 155 38 31
0.135990 -0.087333 0.655000 156 39 32
0.137657 -0.087600 0.657000 156 39 34
0.139120 -0.087733 0.658000 157 40 35
0.140373 -0.087733 0.658000 157 40 35
0.141627 -0.087733 0.658000 156 39 34
0.142663 -0.087600 0.657000 155 38 31
0.144133 -0.087733 0.658000 154 37 30
0.145608 -0.087867 0.659000 156 37 31
0.147086 -0.088000 0.660000 157 38 32
0.148343 -0.088000 0.660000 156 37 31
0.149827 -0.088133 0.661000 156 37 31
0.150857 -0.088000 0.660000 155 38 31
0.152345 -0.088133 0.661000 156 39 32
0.153836 -0.088267 0.662000 152 43 35
0.155331 -0.088400 0.663000 152 43 35
0.156594 -0.088400 0.663000 137 46 37
0.158095 -0.088533 0.664000 134 43 34
0.159360 -0.088533 0.664000 111 42 39
0.160625 -0.088533 0.664000 106 37 34
0.162133 -0.088667 0.665000 95 35 31
0.163400 -0.088667 0.665000 91 31 27
0.164667 -0.088667 0.665000 88 34 35
0.165933 -0.088667 0.665000 93 39 40
0.167200 -0.088667 0.665000 89 50 48
0.168467 -0.088667 0.665000 89 50 48
0.056777 -0.081617 0.621000 113 41 32
0.057960 -0.081617 0.621000 117 45 36
0.059238 -0.081749 0.622000 129 43 32
0.060423 -0.081749 0.622000 131 45 34
0.061608 -0.081749 0.622000 134 46 36
0.062792 -0.081749 0.622000 134 46 36
0.063977 -0.081749 0.622000 134 48 37
0.065267 -0.081880 0.623000 134 48 37
0.066453 -0.081880 0.623000 134 48 37
0.067749 -0.082011 0.624000 135 49 38
0.068937 -0.082011 0.624000 138 50 40
0.070238 -0.082143 0.625000 138 50 40
0.071429 -0.082143 0.625000 142 52 40
0.072735 -0.082274 0.626000 142 52 40
0.073928 -0.082274 0.626000 142 52 40
0.075240 -0.082406 0.627000 142 52 40
0.078019 -0.084114 0.640000 144 54 42
0.077752 -0.082537 0.628000 145 55 43
0.080583 -0.084246 0.641000 147 56 47
0.081931 -0.084377 0.642000 146 55 46
0.083284 -0.084509 0.643000 148 56 52
0.084640 -0.084640 0.644000 151 59 55
0.085867 -0.084640 0.644000 151 62 61
0.087229 -0.084771 0.645000 150 61 60
0.088594 -0.084903 0.646000 133 68 70
0.089825 -0.084903 0.646000 132 67 69
0.091196 -0.085034 0.647000 172 140 136
0.092429 -0.085034 0.647000 199 167 163
0.093661 -0.085034 0.647000 183 149 141
0.094893 -0.085034 0.647000 164 130 122
0.096126 -0.085034 0.647000 160 97 85
0.097358 -0.085034 0.647000 149 86 74
0.096762 -0.083457 0.635000 155 74 57
0.097971 -0.083457 0.635000 153 72 55
0.099337 -0.083589 0.636000 151 64 49
0.100549 -0.083589 0.636000 146 59 44
0.103520 -0.085034 0.647000 150 57 46
0.104752 -0.085034 0.647000 144 51 40
0.105985 -0.085034 0.647000 141 47 36
0.107217 -0.085034 0.647000 137 43 32
0.108450 -0.085034 0.647000 138 39 30
0.107648 -0.083457 0.635000 137 38 29
0.108857 -0.083457 0.635000 136 37 28
0.110240 -0.083589 0.636000 136 37 28
0.111627 -0.083720 0.637000 139 39 33
0.113017 -0.083851 0.638000 140 40 34
0.114411 -0.083983 0.639000 144 41 36
0.115629 -0.083983 0.639000 146 43 38
0.117029 -0.084114 0.640000 146 44 34
0.118617 -0.084377 0.642000 146 44 34
0.119840 -0.084377 0.642000 151 42 32
0.121251 -0.084509 0.643000 149 40 30
0.122667 -0.084640 0.644000 152 38 30
0.124086 -0.084771 0.645000 153 39 31
0.125314 -0.084771 0.645000 155 38 31
0.126739 -0.084903 0.646000 154 37 30
0.128168 -0.085034 0.647000 155 39 29
0.130400 -0.085691 0.652000 155 39 29
0.131844 -0.085823 0.653000 155 39 29
0.133088 -0.085823 0.653000 155 39 29
0.134743 -0.086086 0.655000 154 37 30
0.135990 -0.086086 0.655000 155 38 31
0.137448 -0.086217 0.656000 155 38 31
0.138909 -0.086349 0.657000 157 40 33
0.140160 -0.086349 0.657000 157 40 33
0.141627 -0.086480 0.658000 157 40 33
0.142446 -0.086217 0.656000 156 39 32
0.143914 -0.086349 0.657000 155 38 31
0.145387 -0.086480 0.658000 154 37 30
0.146863 -0.086611 0.659000 156 39 32
0.148118 -0.086611 0.659000 155 38 31
0.149600 -0.086743 0.660000 155 38 31
0.150857 -0.086743 0.660000 151 42 32
0.152114 -0.086743 0.660000 151 42 32
0.153604 -0.086874 0.661000 140 50 38
0.155097 -0.087006 0.662000 140 50 38
0.156594 -0.087137 0.663000 122 51 44
0.157857 -0.087137 0.663000 113 42 35
0.159120 -0.087137 0.663000 99 37 34
0.160625 -0.087269 0.664000 94 32 29
0.161890 -0.087269 0.664000 90 30 28
0.163154 -0.087269 0.664000 89 29 27
0.164419 -0.087269 0.664000 87 36 36
0.165684 -0.087269 0.664000 94 43 43
0.166949 -0.087269 0.664000 87 48 46
0.168213 -0.087269 0.664000 86 47 45
0.053057 -0.080175 0.619000 84 48 38
0.054236 -0.080175 0.619000 111 43 35
0.055415 -0.080175 0.619000 114 46 38
0.056686 -0.080305 0.620000 128 42 33
0.057867 -0.080305 0.620000 129 43 34
0.059048 -0.080305 0.620000 136 43 32
0.060229 -0.080305 0.620000 136 43 32
0.061509 -0.080434 0.621000 136 46 34
0.062691 -0.080434 0.621000 136 46 34
0.063874 -0.080434 0.621000 132 44 34
0.065162 -0.080564 0.622000 132 44 34
0.066347 -0.080564 0.622000 131 45 34
0.067531 -0.080564 0.622000 133 47 36
0.068827 -0.080693 0.623000 136 48 38
0.070013 -0.080693 0.623000 137 49 39
0.071314 -0.080823 0.624000 140 49 40
0.072503 -0.080823 0.624000 140 49 40
0.075227 -0.082507 0.637000 142 49 38
0.076560 -0.082636 0.638000 141 48 37
0.076312 -0.081082 0.626000 143 50 39
0.077505 -0.081082 0.626000 142 49 38
0.078823 -0.081211 0.627000 144 50 42
0.081676 -0.082895 0.640000 144 50 42
0.083025 -0.083025 0.641000 146 52 46
0.084377 -0.083154 0.642000 148 54 48
0.085600 -0.083154 0.642000 150 55 52
0.086958 -0.083284 0.643000 149 54 51
0.088183 -0.083284 0.643000 143 60 57
0.089408 -0.083284 0.643000 145 62 59
0.090773 -0.083413 0.644000 132 70 69
0.092000 -0.083413 0.644000 155 93 92
0.093227 -0.083413 0.644000 155 91 84
0.094453 -0.083413 0.644000 144 80 73
0.093897 -0.081859 0.632000 155 76 63
0.095251 -0.081989 0.633000 150 71 58
0.096457 -0.081989 0.633000 153 66 51
0.097663 -0.081989 0.633000 149 62 47
0.099025 -0.082118 0.634000 149 56 43
0.101813 -0.083413 0.644000 147 54 41
0.103040 -0.083413 0.644000 147 54 43
0.104267 -0.083413 0.644000 143 50 39
0.105493 -0.083413 0.644000 142 45 35
0.106720 -0.083413 0.644000 139 42 32
0.106103 -0.081989 0.633000 143 38 29
0.107309 -0.081989 0.633000 142 37 28
0.108514 -0.081989 0.633000 141 34 26
0.110067 -0.082248 0.635000 141 34 26
0.111276 -0.082248 0.635000 143 36 28
0.112663 -0.082377 0.636000 144 37 29
0.114232 -0.082636 0.638000 147 40 34
0.115448 -0.082636 0.638000 148 41 35
0.117029 -0.082895 0.640000 150 41 33
0.118248 -0.082895 0.640000 150 41 33
0.119653 -0.083025 0.641000 151 40 31
0.121063 -0.083154 0.642000 150 39 30
0.122476 -0.083284 0.643000 152 35 28
0.123893 -0.083413 0.644000 154 37 30
0.125120 -0.083413 0.644000 155 36 30
0.126543 -0.083543 0.645000 155 36 30
0.127970 -0.083672 0.646000 155 37 28
0.130400 -0.084450 0.652000 155 37 28
0.131642 -0.084450 0.652000 155 37 28
0.133088 -0.084579 0.653000 156 38 29
0.134537 -0.084709 0.654000 155 37 28
0.135783 -0.084709 0.654000 156 38 29
0.137448 -0.084968 0.656000 156 37 31
0.138909 -0.085097 0.657000 158 39 33
0.140160 -0.085097 0.657000 156 39 32
0.141411 -0.085097 0.657000 156 39 32
0.142446 -0.084968 0.656000 156 39 32
0.143914 -0.085097 0.657000 156 39 32
0.145387 -0.085227 0.658000 155 38 31
0.146863 -0.085356 0.659000 156 39 32
0.148118 -0.085356 0.659000 151 40 31
0.149600 -0.085486 0.660000 151 40 31
0.150857 -0.085486 0.660000 140 47 34
0.152114 -0.085486 0.660000 139 46 33
0.153604 -0.085615 0.661000 123 53 39
0.154863 -0.085615 0.661000 119 49 35
0.156358 -0.085745 0.662000 108 48 44
0.157857 -0.085874 0.663000 98 38 34
0.159120 -0.085874 0.663000 94 34 32
0.160383 -0.085874 0.663000 90 30 28
0.161890 -0.086004 0.664000 87 29 27
0.163154 -0.086004 0.664000 87 29 27
0.164667 -0.086133 0.665000 87 38 37
0.165933 -0.086133 0.665000 93 44 43
0.167200 -0.086133 0.665000 87 48 46
0.168213 -0.086004 0.664000 85 46 44
0.051710 -0.078741 0.617000 102 45 36
0.052886 -0.078741 0.617000 105 48 39
0.054061 -0.078741 0.617000 125 42 35
0.055236 -0.078741 0.617000 127 44 37
0.056503 -0.078869 0.618000 136 42 34
0.057680 -0.078869 0.618000 135 41 33
0.060095 -0.080528 0.631000 136 43 32
0.061297 -0.080528 0.631000 136 43 32
0.061310 -0.078996 0.619000 134 44 32
0.062490 -0.078996 0.619000 133 43 31
0.063771 -0.079124 0.620000 131 44 31
0.064952 -0.079124 0.620000 130 43 30
0.066240 -0.079251 0.621000 130 42 32
0.067423 -0.079251 0.621000 131 43 33
0.068606 -0.079251 0.621000 135 47 37
0.069789 -0.079251 0.621000 135 47 37
0.071086 -0.079379 0.622000 139 48 39
0.073781 -0.081038 0.635000 139 48 39
0.074990 -0.081038 0.635000 141 48 37
0.076320 -0.081166 0.636000 140 47 36
0.076069 -0.079634 0.624000 141 48 37
0.077257 -0.079634 0.624000 139 46 35
0.078571 -0.079762 0.625000 141 47 39
0.079762 -0.079762 0.625000 142 48 40
0.082636 -0.081421 0.638000 142 48 42
0.083983 -0.081549 0.639000 144 50 44
0.085200 -0.081549 0.639000 146 52 46
0.086552 -0.081676 0.640000 147 53 47
0.087771 -0.081676 0.640000 146 54 50
0.087322 -0.080145 0.628000 149 57 53
0.090350 -0.081804 0.641000 146 63 58
0.091571 -0.081804 0.641000 145 62 57
0.091055 -0.080272 0.629000 144 64 58
0.092400 -0.080400 0.630000 141 61 55
0.093600 -0.080400 0.630000 148 65 53
0.094800 -0.080400 0.630000 146 63 51
0.096152 -0.080528 0.631000 146 56 42
0.097509 -0.080655 0.632000 145 55 41
0.098712 -0.080655 0.632000 144 51 38
0.101339 -0.081804 0.641000 144 51 38
0.100640 -0.080272 0.629000 144 51 40
0.101838 -0.080272 0.629000 142 49 38
0.103200 -0.080400 0.630000 142 45 33
0.104400 -0.080400 0.630000 139 42 30
0.105768 -0.080528 0.631000 145 38 28
0.106970 -0.080528 0.631000 144 37 27
0.108514 -0.080783 0.633000 148 34 26
0.109720 -0.080783 0.633000 148 34 26
0.111101 -0.080910 0.634000 148 34 26
0.112486 -0.081038 0.635000 149 35 27
0.114053 -0.081293 0.637000 152 38 32
0.115448 -0.081421 0.638000 153 39 33
0.116663 -0.081421 0.638000 153 39 31
0.118063 -0.081549 0.639000 153 39 31
0.119280 -0.081549 0.639000 153 39 31
0.120874 -0.081804 0.641000 152 38 30
0.122286 -0.081931 0.642000 152 35 28
0.123701 -0.082059 0.643000 154 37 30
0.125120 -0.082187 0.644000 155 36 30
0.126347 -0.082187 0.644000 155 36 30
0.127771 -0.082314 0.645000 155 37 28
0.130200 -0.083080 0.651000 155 37 28
0.131642 -0.083208 0.652000 155 37 28
0.132884 -0.083208 0.652000 155 37 28
0.134537 -0.083463 0.654000 155 37 28
0.135783 -0.083463 0.654000 156 38 29
0.137238 -0.083590 0.655000 156 37 31
0.138697 -0.083718 0.656000 157 38 32
0.139947 -0.083718 0.656000 156 39 32
0.141411 -0.083846 0.657000 155 38 31
0.142229 -0.083590 0.655000 155 38 31
0.143695 -0.083718 0.656000 155 38 31
0.145166 -0.083846 0.657000 153 39 31
0.146640 -0.083973 0.658000 155 41 33
0.147893 -0.083973 0.658000 143 46 34
0.149373 -0.084101 0.659000 141 44 32
0.150629 -0.084101 0.659000 119 48 32
0.151884 -0.084101 0.659000 118 47 31
0.153371 -0.084229 0.660000 109 50 41
0.154863 -0.084356 0.661000 102 43 34
0.156358 -0.084484 0.662000 96 38 34
0.157857 -0.084611 0.663000 92 34 30
0.159120 -0.084611 0.663000 91 31 29
0.160383 -0.084611 0.663000 89 29 27
0.161890 -0.084739 0.664000 85 30 27
0.163400 -0.084867 0.665000 87 32 29
0.164667 -0.084867 0.665000 87 39 35
0.165933 -0.084867 0.665000 92 44 40
0.167200 -0.084867 0.665000 81 42 38
0.168213 -0.084739 0.664000 81 42 38
0.049200 -0.077314 0.615000 92 45 34
0.050371 -0.077314 0.615000 100 53 42
0.051543 -0.077314 0.615000 119 47 36
0.053829 -0.078949 0.628000 120 48 37
0.053973 -0.077440 0.616000 132 44 36
0.055147 -0.077440 0.616000 134 46 38
0.057509 -0.079074 0.629000 138 45 34
0.058707 -0.079074 0.629000 136 43 32
0.060000 -0.079200 0.630000 136 43 32
0.061200 -0.079200 0.630000 136 43 32
0.062400 -0.079200 0.630000 133 43 31
0.063600 -0.079200 0.630000 133 43 31
0.063566 -0.077691 0.618000 129 43 32
0.066105 -0.079326 0.631000 129 43 32
0.066027 -0.077817 0.619000 129 43 32
0.067206 -0.077817 0.619000 127 41 30
0.069821 -0.079451 0.632000 128 45 35
0.069676 -0.077943 0.620000 126 43 33
0.072343 -0.079577 0.633000 135 47 37
0.073549 -0.079577 0.633000 136 48 38
0.073337 -0.078069 0.621000 140 46 38
0.074640 -0.078194 0.622000 139 45 37
0.075947 -0.078320 0.623000 139 46 35
0.077133 -0.078320 0.623000 138 45 34
0.078320 -0.078320 0.623000 139 45 37
0.079634 -0.078446 0.624000 140 46 38
0.080823 -0.078446 0.624000 140 46 40
0.082011 -0.078446 0.624000 143 49 43
0.083333 -0.078571 0.625000 143 49 43
0.084524 -0.078571 0.625000 144 50 44
0.085851 -0.078697 0.626000 144 53 46
0.087044 -0.078697 0.626000 147 56 49
0.088236 -0.078697 0.626000 146 58 50
0.089571 -0.078823 0.627000 146 58 50
0.090766 -0.078823 0.627000 145 57 49
0.092107 -0.078949 0.628000 143 55 47
0.093303 -0.078949 0.628000 142 54 44
0.094650 -0.079074 0.629000 142 54 44
0.095848 -0.079074 0.629000 142 52 40
0.097200 -0.079200 0.630000 141 51 39
0.099806 -0.080331 0.639000 143 50 39
0.099126 -0.078823 0.627000 142 49 38
0.100480 -0.078949 0.628000 139 49 37
0.101676 -0.078949 0.628000 138 48 36
0.102872 -0.078949 0.628000 140 46 35
0.104234 -0.079074 0.629000 139 45 34
0.105600 -0.079200 0.630000 148 37 28
0.106970 -0.079326 0.631000 147 36 27
0.108171 -0.079326 0.631000 151 34 27
0.109547 -0.079451 0.632000 150 33 26
0.110926 -0.079577 0.633000 152 33 27
0.112486 -0.079829 0.635000 153 34 28
0.113874 -0.079954 0.636000 155 36 30
0.115086 -0.079954 0.636000 156 37 31
0.117211 -0.080583 0.641000 156 37 31
0.117878 -0.080206 0.638000 155 36 30
0.119280 -0.080331 0.639000 155 36 30
0.120686 -0.080457 0.640000 155 36 30
0.122095 -0.080583 0.641000 155 36 30
0.123509 -0.080709 0.642000 153 34 28
0.124731 -0.080709 0.642000 155 34 28
0.126150 -0.080834 0.643000 155 34 28
0.127771 -0.081086 0.645000 157 37 28
0.130000 -0.081714 0.650000 157 37 28
0.131238 -0.081714 0.650000 157 37 28
0.132680 -0.081840 0.651000 157 37 28
0.134331 -0.082091 0.653000 157 37 28
0.134952 -0.081714 0.650000 157 37 28
0.137238 -0.082343 0.655000 158 37 31
0.138697 -0.082469 0.656000 158 37 31
0.139947 -0.082469 0.656000 156 37 31
0.141196 -0.082469 0.656000 156 37 31
0.142229 -0.082343 0.655000 154 37 30
0.143695 -0.082469 0.656000 154 37 30
0.145166 -0.082594 0.657000 145 43 33
0.146640 -0.082720 0.658000 147 45 35
0.147893 -0.082720 0.658000 124 48 36
0.149147 -0.082720 0.658000 120 44 32
0.150629 -0.082846 0.659000 106 43 33
0.152114 -0.082971 0.660000 104 41 31
0.153371 -0.082971 0.660000 99 41 37
0.154863 -0.083097 0.661000 95 37 33
0.156358 -0.083223 0.662000 94 36 32
0.157619 -0.083223 0.662000 91 33 29
0.158880 -0.083223 0.662000 88 30 28
0.160383 -0.083349 0.663000 87 29 27
0.161890 -0.083474 0.664000 84 31 27
0.163154 -0.083474 0.664000 88 35 31
0.164667 -0.083600 0.665000 88 40 36
0.165933 -0.083600 0.665000 87 39 35
0.167200 -0.083600 0.665000 78 36 35
0.168213 -0.083474 0.664000 80 38 37
0.047872 -0.075895 0.613000 86 50 40
0.050080 -0.077505 0.626000 113 48 39
0.051272 -0.077505 0.626000 116 51 42
0.052465 -0.077505 0.626000 130 48 36
0.053743 -0.077629 0.627000 130 48 36
0.054937 -0.077629 0.627000 136 45 36
0.056131 -0.077629 0.627000 136 45 36
0.057417 -0.077752 0.628000 136 43 32
0.058613 -0.077752 0.628000 136 43 32
0.059810 -0.077752 0.628000 133 43 31
0.061006 -0.077752 0.628000 132 42 30
0.062301 -0.077876 0.629000 131 44 31
0.063499 -0.077876 0.629000 130 43 30
0.064697 -0.077876 0.629000 129 43 32
0.065895 -0.077876 0.629000 126 40 29
0.065813 -0.076390 0.617000 129 52 45
0.066989 -0.076390 0.617000 151 74 67
0.068274 -0.076514 0.618000 151 88 78
0.069451 -0.076514 0.618000 151 88 78
0.072114 -0.078124 0.631000 143 71 62
0.071922 -0.076638 0.619000 121 49 40
0.073219 -0.076762 0.620000 136 42 36
0.074400 -0.076762 0.620000 138 44 38
0.075703 -0.076886 0.621000 139 44 36
0.076886 -0.076886 0.621000 139 44 36
0.078194 -0.077010 0.622000 139 44 36
0.079379 -0.077010 0.622000 140 45 37
0.080564 -0.077010 0.622000 139 45 39
0.081749 -0.077010 0.622000 141 47 41
0.083067 -0.077133 0.623000 141 47 41
0.084253 -0.077133 0.623000 143 49 43
0.085577 -0.077257 0.624000 144 50 44
0.086766 -0.077257 0.624000 147 53 47
0.087954 -0.077257 0.624000 146 55 46
0.089286 -0.077381 0.625000 142 51 42
0.090621 -0.077505 0.626000 142 51 42
0.091813 -0.077505 0.626000 141 50 41
0.093006 -0.077505 0.626000 141 50 41
0.094349 -0.077629 0.627000 141 50 41
0.095543 -0.077629 0.627000 140 49 40
0.096891 -0.077752 0.628000 139 48 39
0.097619 -0.077381 0.625000 140 47 36
0.098810 -0.077381 0.625000 136 43 32
0.100160 -0.077505 0.626000 132 41 32
0.101514 -0.077629 0.627000 132 41 32
0.102709 -0.077629 0.627000 139 40 31
0.104069 -0.077752 0.628000 140 41 32
0.105432 -0.077876 0.629000 150 36 28
0.106630 -0.077876 0.629000 149 35 27
0.108000 -0.078000 0.630000 152 33 27
0.109547 -0.078248 0.632000 152 33 27
0.110750 -0.078248 0.632000 153 34 28
0.112840 -0.078867 0.637000 153 34 28
0.114232 -0.078990 0.638000 155 36 30
0.115629 -0.079114 0.639000 155 36 30
0.117029 -0.079238 0.640000 155 36 30
0.117693 -0.078867 0.637000 155 36 30
0.119093 -0.078990 0.638000 155 36 30
0.120497 -0.079114 0.639000 155 36 30
0.121905 -0.079238 0.640000 155 36 30
0.123316 -0.079362 0.641000 155 36 30
0.124731 -0.079486 0.642000 155 34 28
0.126150 -0.079610 0.643000 155 34 28
0.127573 -0.079733 0.644000 157 37 28
0.129800 -0.080352 0.649000 155 35 26
0.131238 -0.080476 0.650000 157 37 28
0.132680 -0.080600 0.651000 157 37 28
0.134331 -0.080848 0.653000 155 35 26
0.134952 -0.080476 0.650000 157 37 28
0.136400 -0.080600 0.651000 157 37 28
0.138697 -0.081219 0.656000 157 37 28
0.139947 -0.081219 0.656000 156 38 29
0.141411 -0.081343 0.657000 156 38 29
0.142229 -0.081095 0.655000 151 40 33
0.143695 -0.081219 0.656000 152 41 34
0.145166 -0.081343 0.657000 132 50 35
0.146640 -0.081467 0.658000 129 47 32
0.147893 -0.081467 0.658000 113 45 37
0.149147 -0.081467 0.658000 106 38 30
0.150629 -0.081590 0.659000 97 36 30
0.151884 -0.081590 0.659000 98 37 31
0.153371 -0.081714 0.660000 96 38 34
0.154629 -0.081714 0.660000 94 36 32
0.156122 -0.081838 0.661000 93 35 33
0.157619 -0.081962 0.662000 89 31 29
0.158880 -0.081962 0.662000 88 30 28
0.160383 -0.082086 0.663000 87 29 27
0.161890 -0.082210 0.664000 84 31 29
0.163400 -0.082333 0.665000 88 35 33
0.164667 -0.082333 0.665000 87 36 36
0.165933 -0.082333 0.665000 82 31 31
0.167200 -0.082333 0.665000 76 32 32
0.168213 -0.082210 0.664000 78 34 34
0.045389 -0.074484 0.611000 82 48 36
0.046629 -0.074606 0.612000 100 46 36
0.047794 -0.074606 0.612000 105 51 41
0.050000 -0.076190 0.625000 122 47 37
0.051190 -0.076190 0.625000 125 50 40
0.052381 -0.076190 0.625000 134 48 37
0.053657 -0.076312 0.626000 133 47 36
0.054850 -0.076312 0.626000 136 45 36
0.056042 -0.076312 0.626000 136 45 36
0.057326 -0.076434 0.627000 134 43 34
0.058520 -0.076434 0.627000 133 42 33
0.059714 -0.076434 0.627000 131 40 31
0.060909 -0.076434 0.627000 132 41 32
0.062202 -0.076556 0.628000 130 42 32
0.063398 -0.076556 0.628000 131 43 33
0.064594 -0.076556 0.628000 126 43 33
0.065790 -0.076556 0.628000 129 46 36
0.065707 -0.075093 0.616000 186 127 120
0.066880 -0.075093 0.616000 211 152 145
0.068053 -0.075093 0.616000 184 148 136
0.069339 -0.075215 0.617000 192 156 144
0.070514 -0.075215 0.617000 205 164 156
0.071690 -0.075215 0.617000 179 138 130
0.072983 -0.075337 0.618000 125 42 39
0.074160 -0.075337 0.618000 128 45 42
0.075459 -0.075459 0.619000 136 42 36
0.076638 -0.075459 0.619000 136 42 36
0.077943 -0.075581 0.620000 137 42 34
0.079124 -0.075581 0.620000 139 44 36
0.080305 -0.075581 0.620000 139 44 36
0.081486 -0.075581 0.620000 141 46 38
0.082800 -0.075703 0.621000 141 46 38
0.084118 -0.075825 0.622000 143 48 40
0.085303 -0.075825 0.622000 143 48 40
0.086488 -0.075825 0.622000 144 49 41
0.087813 -0.075947 0.623000 143 49 41
0.089000 -0.075947 0.623000 141 47 39
0.090331 -0.076069 0.624000 142 48 40
0.091667 -0.076190 0.625000 142 48 40
0.092857 -0.076190 0.625000 142 48 40
0.094048 -0.076190 0.625000 141 47 39
0.095390 -0.076312 0.626000 140 46 38
0.096737 -0.076434 0.627000 135 41 33
0.097307 -0.075947 0.623000 132 38 30
0.098651 -0.076069 0.624000 127 33 25
0.100000 -0.076190 0.625000 131 33 26
0.101352 -0.076312 0.626000 134 36 29
0.102545 -0.076312 0.626000 143 36 26
0.103903 -0.076434 0.627000 145 38 28
0.105265 -0.076556 0.628000 150 37 26
0.106461 -0.076556 0.628000 149 36 25
0.108000 -0.076800 0.630000 152 34 25
0.109893 -0.077288 0.634000 153 35 26
0.111276 -0.077410 0.635000 153 35 26
0.112663 -0.077531 0.636000 153 35 26
0.114232 -0.077775 0.638000 153 35 26
0.115448 -0.077775 0.638000 155 37 28
0.115566 -0.077044 0.632000 155 37 28
0.117509 -0.077531 0.636000 155 37 28
0.118907 -0.077653 0.637000 155 37 28
0.120309 -0.077775 0.638000 155 37 28
0.121714 -0.077897 0.639000 155 37 28
0.123124 -0.078019 0.640000 155 37 28
0.124731 -0.078263 0.642000 155 35 26
0.125954 -0.078263 0.642000 155 35 26
0.127573 -0.078507 0.644000 157 37 28
0.129000 -0.078629 0.645000 155 35 26
0.130430 -0.078750 0.646000 156 34 26
0.132680 -0.079360 0.651000 156 34 26
0.134126 -0.079482 0.652000 156 34 26
0.135575 -0.079604 0.653000 158 36 28
0.137029 -0.079726 0.654000 157 37 28
0.138486 -0.079848 0.655000 157 37 28
0.139947 -0.079970 0.656000 154 37 30
0.141411 -0.080091 0.657000 155 38 31
0.142011 -0.079726 0.654000 145 51 40
0.143476 -0.079848 0.655000 147 53 42
0.144945 -0.079970 0.656000 120 52 42
0.146417 -0.080091 0.657000 115 47 37
0.147669 -0.080091 0.657000 101 37 30
0.149147 -0.080213 0.658000 98 34 27
0.150400 -0.080213 0.658000 95 34 28
0.151884 -0.080335 0.659000 97 36 30
0.153139 -0.080335 0.659000 97 37 33
0.154629 -0.080457 0.660000 96 36 32
0.156122 -0.080579 0.661000 92 34 30
0.157619 -0.080701 0.662000 89 31 27
0.158880 -0.080701 0.662000 87 29 27
0.160383 -0.080823 0.663000 86 28 26
0.161890 -0.080945 0.664000 85 30 27
0.163400 -0.081067 0.665000 89 34 31
0.163924 -0.080701 0.662000 83 32 32
0.165185 -0.080701 0.662000 79 28 28
0.166697 -0.080823 0.663000 74 30 28
0.168213 -0.080945 0.664000 78 34 32
0.044080 -0.073080 0.609000 99 45 35
0.045314 -0.073200 0.610000 101 47 37
0.046476 -0.073200 0.610000 112 47 38
0.048653 -0.074760 0.623000 114 49 40
0.048880 -0.073320 0.611000 124 47 38
0.051109 -0.074880 0.624000 126 49 40
0.052297 -0.074880 0.624000 134 48 37
0.053486 -0.074880 0.624000 133 47 36
0.054762 -0.075000 0.625000 134 46 36
0.055952 -0.075000 0.625000 131 43 33
0.057143 -0.075000 0.625000 130 42 32
0.058427 -0.075120 0.626000 129 41 31
0.059619 -0.075120 0.626000 129 41 31
0.060811 -0.075120 0.626000 130 42 32
0.062004 -0.075120 0.626000 133 42 33
0.063196 -0.075120 0.626000 131 40 31
0.064389 -0.075120 0.626000 148 76 67
0.064324 -0.073680 0.614000 152 80 71
0.065493 -0.073680 0.614000 175 137 128
0.066663 -0.073680 0.614000 206 168 159
0.067943 -0.073800 0.615000 187 161 150
0.069227 -0.073920 0.616000 174 148 137
0.070400 -0.073920 0.616000 202 171 162
0.071573 -0.073920 0.616000 203 172 163
0.072747 -0.073920 0.616000 161 85 82
0.074040 -0.074040 0.617000 119 43 40
0.075215 -0.074040 0.617000 136 42 34
0.076390 -0.074040 0.617000 135 41 33
0.077691 -0.074160 0.618000 137 42 34
0.078869 -0.074160 0.618000 139 44 36
0.080175 -0.074280 0.619000 139 44 36
0.081354 -0.074280 0.619000 141 46 38
0.082667 -0.074400 0.620000 140 45 37
0.083983 -0.074520 0.621000 142 47 39
0.085166 -0.074520 0.621000 142 47 39
0.086349 -0.074520 0.621000 142 47 39
0.087531 -0.074520 0.621000 142 47 39
0.088857 -0.074640 0.622000 141 46 38
0.090187 -0.074760 0.623000 141 47 39
0.091373 -0.074760 0.623000 142 48 40
0.092709 -0.074880 0.624000 139 48 39
0.093295 -0.074400 0.620000 133 42 33
0.094629 -0.074520 0.621000 129 35 27
0.095966 -0.074640 0.622000 126 32 24
0.097307 -0.074760 0.623000 126 31 23
0.098493 -0.074760 0.623000 125 30 22
0.099840 -0.074880 0.624000 131 29 21
0.101190 -0.075000 0.625000 138 36 28
0.102381 -0.075000 0.625000 146 35 26
0.103737 -0.075120 0.626000 148 37 28
0.105097 -0.075240 0.627000 152 36 26
0.106461 -0.075360 0.628000 152 36 26
0.108514 -0.075960 0.633000 152 34 25
0.109720 -0.075960 0.633000 153 35 26
0.111101 -0.076080 0.634000 155 35 26
0.112663 -0.076320 0.636000 155 35 26
0.112800 -0.075600 0.630000 155 35 26
0.114000 -0.075600 0.630000 155 35 26
0.115383 -0.075720 0.631000 155 35 26
0.117324 -0.076200 0.635000 157 37 28
0.118720 -0.076320 0.636000 157 37 28
0.120309 -0.076560 0.638000 157 37 28
0.121524 -0.076560 0.638000 157 37 28
0.122931 -0.076680 0.639000 157 37 28
0.124537 -0.076920 0.641000 155 35 26
0.125758 -0.076920 0.641000 155 35 26
0.127375 -0.077160 0.643000 155 35 26
0.129000 -0.077400 0.645000 155 35 26
0.130229 -0.077400 0.645000 156 34 26
0.131661 -0.077520 0.646000 156 34 26
0.133920 -0.078120 0.651000 156 34 26
0.135368 -0.078240 0.652000 158 36 28
0.136819 -0.078360 0.653000 157 37 28
0.138274 -0.078480 0.654000 160 40 31
0.139733 -0.078600 0.655000 149 44 35
0.141196 -0.078720 0.656000 148 43 34
0.142011 -0.078480 0.654000 134 52 42
0.143476 -0.078600 0.655000 141 59 49
0.144945 -0.078720 0.656000 112 48 43
0.146417 -0.078840 0.657000 110 46 41
0.147669 -0.078840 0.657000 99 34 32
0.148920 -0.078840 0.657000 97 32 30
0.150171 -0.078840 0.657000 97 32 30
0.151653 -0.078960 0.658000 98 33 31
0.153139 -0.079080 0.659000 97 37 33
0.154629 -0.079200 0.660000 95 35 31
0.156122 -0.079320 0.661000 94 34 30
0.157619 -0.079440 0.662000 90 30 26
0.159120 -0.079560 0.663000 89 29 25
0.160625 -0.079680 0.664000 88 28 24
0.162133 -0.079800 0.665000 85 30 27
0.163646 -0.079920 0.666000 87 32 29
0.165410 -0.080160 0.668000 79 29 26
0.166682 -0.080160 0.668000 76 26 23
0.167954 -0.080160 0.668000 72 29 24
0.041623 -0.071684 0.607000 105 46 37
0.042779 -0.071684 0.607000 108 49 40
0.043935 -0.071684 0.607000 117 46 39
0.045166 -0.071802 0.608000 118 47 40
0.046324 -0.071802 0.608000 118 46 37
0.048497 -0.073337 0.621000 119 47 38
0.048720 -0.071920 0.609000 123 46 37
0.050945 -0.073455 0.622000 124 47 38
0.052130 -0.073455 0.622000 131 48 38
0.053314 -0.073455 0.622000 129 46 36
0.054587 -0.073573 0.623000 131 43 33
0.055773 -0.073573 0.623000 130 42 32
0.056960 -0.073573 0.623000 129 41 31
0.058240 -0.073691 0.624000 129 41 31
0.059429 -0.073691 0.624000 130 42 32
0.060617 -0.073691 0.624000 131 43 33
0.061806 -0.073691 0.624000 129 45 40
0.062994 -0.073691 0.624000 158 74 69
0.062949 -0.072274 0.612000 192 144 136
0.064114 -0.072274 0.612000 202 154 146
0.065280 -0.072274 0.612000 177 155 145
0.066446 -0.072274 0.612000 188 166 156
0.067722 -0.072392 0.613000 191 164 156
0.069002 -0.072510 0.614000 163 136 128
0.070171 -0.072510 0.614000 182 136 130
0.071341 -0.072510 0.614000 168 122 116
0.072510 -0.072510 0.614000 159 75 75
0.073800 -0.072629 0.615000 125 41 41
0.074971 -0.072629 0.615000 136 42 34
0.076267 -0.072747 0.616000 136 42 34
0.077440 -0.072747 0.616000 137 42 34
0.078741 -0.072865 0.617000 139 44 36
0.080046 -0.072983 0.618000 137 42 34
0.081223 -0.072983 0.618000 140 45 37
0.082533 -0.073101 0.619000 140 45 37
0.083712 -0.073101 0.619000 141 46 38
0.084891 -0.073101 0.619000 141 46 38
0.086070 -0.073101 0.619000 142 47 39
0.087390 -0.073219 0.620000 141 46 38
0.088571 -0.073219 0.620000 141 46 38
0.090042 -0.073455 0.622000 140 46 38
0.090640 -0.072983 0.618000 139 45 37
0.091817 -0.072983 0.618000 131 40 33
0.093145 -0.073101 0.619000 124 33 26
0.094476 -0.073219 0.620000 121 27 19
0.095811 -0.073337 0.621000 122 28 20
0.097150 -0.073455 0.622000 128 29 20
0.098335 -0.073455 0.622000 129 30 21
0.099680 -0.073573 0.623000 136 29 21
0.101029 -0.073691 0.624000 142 35 27
0.102217 -0.073691 0.624000 149 36 25
0.103571 -0.073810 0.625000 150 37 26
0.104930 -0.073928 0.626000 153 35 26
0.106122 -0.073928 0.626000 153 35 26
0.108171 -0.074518 0.631000 155 35 26
0.109720 -0.074754 0.633000 155 35 26
0.110926 -0.074754 0.633000 155 35 26
0.111246 -0.074164 0.628000 155 35 26
0.112442 -0.074164 0.628000 155 35 26
0.113819 -0.074282 0.629000 155 35 26
0.115200 -0.074400 0.630000 155 35 26
0.117139 -0.074872 0.634000 157 37 28
0.118720 -0.075109 0.636000 157 37 28
0.120120 -0.075227 0.637000 155 35 26
0.121524 -0.075345 0.638000 155 35 26
0.122931 -0.075463 0.639000 155 35 26
0.124343 -0.075581 0.640000 156 34 26
0.125758 -0.075699 0.641000 156 34 26
0.127375 -0.075935 0.643000 156 34 26
0.128800 -0.076053 0.644000 156 34 26
0.130229 -0.076171 0.645000 155 33 25
0.132476 -0.076762 0.650000 155 33 25
0.133920 -0.076880 0.651000 156 34 26
0.134537 -0.076526 0.648000 158 36 28
0.135981 -0.076644 0.649000 151 40 31
0.137429 -0.076762 0.650000 155 44 35
0.138880 -0.076880 0.651000 139 53 42
0.140335 -0.076998 0.652000 133 47 36
0.141794 -0.077116 0.653000 119 47 40
0.143257 -0.077234 0.654000 111 39 32
0.144724 -0.077352 0.655000 104 37 36
0.145971 -0.077352 0.655000 107 40 39
0.147219 -0.077352 0.655000 100 35 33
0.148693 -0.077470 0.656000 96 31 29
0.150171 -0.077589 0.657000 97 32 30
0.151653 -0.077707 0.658000 98 33 31
0.153139 -0.077825 0.659000 97 35 32
0.154629 -0.077943 0.660000 96 34 31
0.156122 -0.078061 0.661000 94 32 29
0.157619 -0.078179 0.662000 90 28 25
0.159120 -0.078297 0.663000 88 28 24
0.160625 -0.078415 0.664000 88 28 24
0.162133 -0.078533 0.665000 85 30 27
0.163891 -0.078770 0.667000 85 30 27
0.165410 -0.078888 0.668000 76 26 21
0.166682 -0.078888 0.668000 75 25 20
0.167954 -0.078888 0.668000 72 29 24
0.039246 -0.070411 0.606000 105 48 39
0.040400 -0.070411 0.606000 106 49 40
0.041554 -0.070411 0.606000 121 46 38
0.042709 -0.070411 0.606000 121 46 38
0.043863 -0.070411 0.606000 125 45 37
0.045091 -0.070528 0.607000 124 44 36
0.046248 -0.070528 0.607000 124 44 36
0.048419 -0.072038 0.620000 124 44 36
0.048640 -0.070644 0.608000 127 45 35
0.050863 -0.072154 0.621000 127 45 35
0.052046 -0.072154 0.621000 128 45 35
0.053229 -0.072154 0.621000 127 44 34
0.054411 -0.072154 0.621000 129 43 32
0.055594 -0.072154 0.621000 128 42 31
0.056777 -0.072154 0.621000 129 41 31
0.058053 -0.072270 0.622000 130 42 32
0.059238 -0.072270 0.622000 134 43 36
0.060423 -0.072270 0.622000 133 42 35
0.061608 -0.072270 0.622000 166 97 92
0.061581 -0.070876 0.610000 200 131 126
0.062743 -0.070876 0.610000 183 154 144
0.064010 -0.070992 0.611000 202 173 163
0.065173 -0.070992 0.611000 186 166 156
0.066337 -0.070992 0.611000 190 170 160
0.067501 -0.070992 0.611000 186 148 141
0.068777 -0.071109 0.612000 130 92 85
0.069943 -0.071109 0.612000 135 62 63
0.071225 -0.071225 0.613000 128 55 56
0.072392 -0.071225 0.613000 143 56 54
0.073680 -0.071341 0.614000 131 44 42
0.074850 -0.071341 0.614000 136 42 36
0.076143 -0.071457 0.615000 136 42 36
0.077314 -0.071457 0.615000 139 44 36
0.078613 -0.071573 0.616000 139 44 36
0.079787 -0.071573 0.616000 137 42 34
0.080960 -0.071573 0.616000 140 45 37
0.082267 -0.071690 0.617000 139 44 36
0.083442 -0.071690 0.617000 140 45 37
0.084754 -0.071806 0.618000 141 46 38
0.085931 -0.071806 0.618000 141 46 38
0.087109 -0.071806 0.618000 140 46 38
0.088571 -0.072038 0.620000 138 44 36
0.089173 -0.071573 0.616000 131 40 33
0.090347 -0.071573 0.616000 127 36 29
0.091669 -0.071690 0.617000 123 31 27
0.092994 -0.071806 0.618000 120 28 24
0.094171 -0.071806 0.618000 124 26 19
0.095657 -0.072038 0.620000 125 27 20
0.096838 -0.072038 0.620000 131 29 19
0.098177 -0.072154 0.621000 133 31 21
0.099520 -0.072270 0.622000 139 30 22
0.100867 -0.072387 0.623000 144 35 27
0.102053 -0.072387 0.623000 150 37 26
0.103406 -0.072503 0.624000 150 37 26
0.104762 -0.072619 0.625000 153 35 26
0.105952 -0.072619 0.625000 152 34 25
0.108171 -0.073316 0.631000 155 35 26
0.109547 -0.073432 0.632000 155 35 26
0.110750 -0.073432 0.632000 157 37 28
0.111069 -0.072851 0.627000 157 37 28
0.112263 -0.072851 0.627000 155 35 26
0.113638 -0.072968 0.628000 155 35 26
0.115017 -0.073084 0.629000 155 35 26
0.116954 -0.073549 0.633000 157 37 28
0.118533 -0.073781 0.635000 155 35 26
0.119931 -0.073897 0.636000 155 35 26
0.121333 -0.074013 0.637000 156 34 26
0.122739 -0.074130 0.638000 156 34 26
0.124343 -0.074362 0.640000 156 34 26
0.125758 -0.074478 0.641000 156 34 26
0.127177 -0.074594 0.642000 156 34 26
0.128600 -0.074710 0.643000 156 34 26
0.130834 -0.075291 0.648000 155 33 25
0.132272 -0.075408 0.649000 155 33 25
0.133714 -0.075524 0.650000 153 34 28
0.134537 -0.075291 0.648000 155 36 30
0.136190 -0.075524 0.650000 143 44 33
0.137640 -0.075640 0.651000 143 44 33
0.138880 -0.075640 0.651000 130 53 46
0.140335 -0.075756 0.652000 119 42 35
0.141794 -0.075872 0.653000 112 39 35
0.143257 -0.075989 0.654000 107 34 30
0.144724 -0.076105 0.655000 102 33 30
0.145749 -0.075989 0.654000 103 34 31
0.147219 -0.076105 0.655000 100 35 33
0.148693 -0.076221 0.656000 97 32 30
0.150171 -0.076337 0.657000 98 33 31
0.151653 -0.076453 0.658000 98 33 31
0.153139 -0.076570 0.659000 97 35 32
0.154863 -0.076802 0.661000 96 34 31
0.156358 -0.076918 0.662000 92 30 27
0.157857 -0.077034 0.663000 90 28 25
0.159360 -0.077150 0.664000 89 27 24
0.160625 -0.077150 0.664000 89 27 24
0.162133 -0.077267 0.665000 86 28 26
0.164137 -0.077615 0.668000 85 27 25
0.165657 -0.077731 0.669000 75 25 20
0.166682 -0.077615 0.668000 73 23 18
0.167954 -0.077615 0.668000 70 29 23
0.036815 -0.069029 0.604000 102 45 36
0.038029 -0.069143 0.605000 108 51 42
0.039181 -0.069143 0.605000 125 50 42
0.040333 -0.069143 0.605000 125 50 42
0.041486 -0.069143 0.605000 129 45 38
0.042638 -0.069143 0.605000 129 45 38
0.043790 -0.069143 0.605000 130 44 35
0.045017 -0.069257 0.606000 130 44 35
0.046171 -0.069257 0.606000 129 43 34
0.047326 -0.069257 0.606000 129 43 34
0.048480 -0.069257 0.606000 130 44 35
0.050699 -0.070743 0.619000 129 43 34
0.051878 -0.070743 0.619000 128 42 33
0.053057 -0.070743 0.619000 128 42 33
0.054236 -0.070743 0.619000 130 42 32
0.055415 -0.070743 0.619000 130 42 32
0.055497 -0.069371 0.607000 132 41 32
0.057867 -0.070857 0.620000 132 41 32
0.059048 -0.070857 0.620000 129 45 42
0.060229 -0.070857 0.620000 146 62 59
0.060221 -0.069486 0.608000 176 130 124
0.061379 -0.069486 0.608000 208 162 156
0.062640 -0.069600 0.609000 181 160 147
0.063800 -0.069600 0.609000 185 164 151
0.064960 -0.069600 0.609000 181 152 142
0.066120 -0.069600 0.609000 167 138 128
0.067280 -0.069600 0.609000 155 93 92
0.068552 -0.069714 0.610000 123 61 60
0.069829 -0.069829 0.611000 138 54 54
0.070992 -0.069829 0.611000 135 51 51
0.072274 -0.069943 0.612000 139 50 47
0.073440 -0.069943 0.612000 134 45 42
0.074728 -0.070057 0.613000 136 42 36
0.075895 -0.070057 0.613000 138 44 38
0.077189 -0.070171 0.614000 139 45 34
0.078358 -0.070171 0.614000 139 45 34
0.079657 -0.070286 0.615000 137 43 32
0.080829 -0.070286 0.615000 139 45 34
0.082133 -0.070400 0.616000 139 45 34
0.083307 -0.070400 0.616000 140 46 35
0.084480 -0.070400 0.616000 140 47 36
0.085792 -0.070514 0.617000 139 46 35
0.087109 -0.070629 0.618000 133 42 33
0.087714 -0.070171 0.614000 126 35 26
0.089029 -0.070286 0.615000 124 33 26
0.090200 -0.070286 0.615000 122 31 24
0.091520 -0.070400 0.616000 124 30 24
0.092693 -0.070400 0.616000 122 28 22
0.094019 -0.070514 0.617000 131 29 21
0.095503 -0.070743 0.619000 133 31 23
0.096838 -0.070857 0.620000 135 30 21
0.098019 -0.070857 0.620000 137 32 23
0.099360 -0.070971 0.621000 140 31 21
0.100705 -0.071086 0.622000 144 35 25
0.101890 -0.071086 0.622000 149 36 25
0.103240 -0.071200 0.623000 149 36 25
0.104594 -0.071314 0.624000 153 35 26
0.106630 -0.071886 0.629000 152 34 25
0.108000 -0.072000 0.630000 154 34 25
0.109373 -0.072114 0.631000 155 35 26
0.110750 -0.072229 0.632000 155 35 26
0.110891 -0.071543 0.626000 157 37 28
0.112263 -0.071657 0.627000 155 35 26
0.113638 -0.071771 0.628000 155 35 26
0.115017 -0.071886 0.629000 155 35 26
0.116215 -0.071886 0.629000 157 37 28
0.118347 -0.072457 0.634000 155 35 26
0.119931 -0.072686 0.636000 155 35 26
0.121333 -0.072800 0.637000 156 34 26
0.122739 -0.072914 0.638000 156 34 26
0.124343 -0.073143 0.640000 156 34 26
0.125562 -0.073143 0.640000 156 34 26
0.127177 -0.073371 0.642000 156 34 26
0.128600 -0.073486 0.643000 156 34 26
0.130027 -0.073600 0.644000 154 34 25
0.131661 -0.073829 0.646000 155 35 26
0.133097 -0.073943 0.647000 147 40 32
0.134537 -0.074057 0.648000 145 38 30
0.135981 -0.074171 0.649000 130 42 32
0.137429 -0.074286 0.650000 129 41 31
0.138880 -0.074400 0.651000 117 40 35
0.140335 -0.074514 0.652000 114 37 32
0.141794 -0.074629 0.653000 107 34 30
0.143257 -0.074743 0.654000 105 32 28
0.144724 -0.074857 0.655000 103 31 27
0.146194 -0.074971 0.656000 102 30 26
0.147444 -0.074971 0.656000 101 35 31
0.148693 -0.074971 0.656000 99 33 29
0.150171 -0.075086 0.657000 99 32 31
0.151653 -0.075200 0.658000 100 33 32
0.153139 -0.075314 0.659000 99 34 32
0.155097 -0.075657 0.662000 98 33 31
0.156594 -0.075771 0.663000 93 28 26
0.158095 -0.075886 0.664000 91 26 24
0.159600 -0.076000 0.665000 89 27 24
0.160625 -0.075886 0.664000 89 27 24
0.161158 -0.075543 0.661000 87 27 25
0.164383 -0.076457 0.669000 84 24 22
0.165657 -0.076457 0.669000 74 24 19
0.165185 -0.075657 0.662000 72 22 17
0.166697 -0.075771 0.663000 70 29 23
0.034400 -0.067653 0.602000 99 45 35
0.035606 -0.067766 0.603000 106 52 42
0.036815 -0.067878 0.604000 122 47 39
0.037966 -0.067878 0.604000 125 50 42
0.039116 -0.067878 0.604000 134 47 43
0.040267 -0.067878 0.604000 134 47 43
0.041417 -0.067878 0.604000 137 46 39
0.042568 -0.067878 0.604000 136 45 38
0.043718 -0.067878 0.604000 134 43 36
0.044943 -0.067990 0.605000 133 42 35
0.046095 -0.067990 0.605000 132 41 34
0.047248 -0.067990 0.605000 133 42 35
0.048400 -0.067990 0.605000 132 41 34
0.049552 -0.067990 0.605000 131 40 33
0.050705 -0.067990 0.605000 129 41 31
0.051857 -0.067990 0.605000 129 41 31
0.053010 -0.067990 0.605000 131 43 33
0.054162 -0.067990 0.605000 129 41 31
0.055314 -0.067990 0.605000 124 37 31
0.057680 -0.069451 0.618000 141 54 48
0.058857 -0.069451 0.618000 177 119 115
0.060034 -0.069451 0.618000 199 141 137
0.060023 -0.068103 0.606000 177 151 140
0.061177 -0.068103 0.606000 194 168 157
0.062434 -0.068215 0.607000 191 170 155
0.063590 -0.068215 0.607000 163 142 127
0.064747 -0.068215 0.607000 167 117 114
0.065903 -0.068215 0.607000 132 82 79
0.067059 -0.068215 0.607000 136 52 54
0.068328 -0.068328 0.608000 136 52 54
0.069600 -0.068440 0.609000 137 50 48
0.070760 -0.068440 0.609000 135 48 46
0.072038 -0.068552 0.610000 138 46 42
0.073200 -0.068552 0.610000 136 44 40
0.074484 -0.068665 0.611000 139 44 36
0.075648 -0.068665 0.611000 139 44 36
0.076937 -0.068777 0.612000 141 44 34
0.078103 -0.068777 0.612000 141 44 34
0.079398 -0.068890 0.613000 139 42 32
0.080566 -0.068890 0.613000 142 45 35
0.081867 -0.069002 0.614000 139 45 34
0.083036 -0.069002 0.614000 140 46 35
0.084343 -0.069114 0.615000 137 46 37
0.085653 -0.069227 0.616000 132 41 32
0.086263 -0.068777 0.612000 125 34 27
0.087571 -0.068890 0.613000 122 31 24
0.088884 -0.069002 0.614000 124 29 26
0.090053 -0.069002 0.614000 124 29 26
0.091371 -0.069114 0.615000 129 29 23
0.092543 -0.069114 0.615000 130 30 24
0.094019 -0.069339 0.617000 135 30 21
0.095349 -0.069451 0.618000 137 32 23
0.096526 -0.069451 0.618000 138 31 23
0.097861 -0.069564 0.619000 138 31 23
0.099200 -0.069676 0.620000 140 31 21
0.100543 -0.069789 0.621000 144 35 25
0.101726 -0.069789 0.621000 147 37 25
0.103240 -0.070013 0.623000 147 37 25
0.104594 -0.070126 0.624000 153 35 26
0.106461 -0.070575 0.628000 152 34 25
0.107829 -0.070688 0.629000 154 34 25
0.109373 -0.070912 0.631000 155 35 26
0.110575 -0.070912 0.631000 155 35 26
0.110891 -0.070350 0.626000 155 35 26
0.112084 -0.070350 0.626000 155 35 26
0.113457 -0.070463 0.627000 155 35 26
0.115383 -0.070912 0.631000 155 35 26
0.116030 -0.070575 0.628000 157 37 28
0.118347 -0.071250 0.634000 155 35 26
0.119931 -0.071474 0.636000 155 35 26
0.121143 -0.071474 0.636000 156 34 26
0.122547 -0.071587 0.637000 156 34 26
0.124149 -0.071811 0.639000 155 33 25
0.125562 -0.071924 0.640000 156 34 26
0.126979 -0.072036 0.641000 156 34 26
0.128600 -0.072261 0.643000 156 34 26
0.130027 -0.072373 0.644000 150 36 28
0.131661 -0.072598 0.646000 150 36 28
0.133097 -0.072710 0.647000 134 41 30
0.134537 -0.072823 0.648000 132 39 28
0.135981 -0.072935 0.649000 122 38 31
0.137429 -0.073048 0.650000 121 37 30
0.138880 -0.073160 0.651000 115 38 33
0.140335 -0.073272 0.652000 113 36 31
0.141794 -0.073385 0.653000 108 32 29
0.143257 -0.073497 0.654000 106 30 27
0.144724 -0.073610 0.655000 102 29 25
0.145971 -0.073610 0.655000 100 27 23
0.147444 -0.073722 0.656000 102 33 28
0.148693 -0.073722 0.656000 102 33 28
0.150171 -0.073834 0.657000 100 33 32
0.151653 -0.073947 0.658000 100 33 32
0.153371 -0.074171 0.660000 100 33 32
0.155097 -0.074396 0.662000 98 31 30
0.156594 -0.074509 0.663000 94 27 26
0.158095 -0.074621 0.664000 92 25 24
0.159600 -0.074733 0.665000 91 26 24
0.159657 -0.074171 0.660000 91 26 24
0.161158 -0.074284 0.661000 86 26 24
0.164629 -0.075295 0.670000 82 22 20
0.165905 -0.075295 0.670000 75 22 18
0.165185 -0.074396 0.662000 74 21 17
0.166697 -0.074509 0.663000 68 29 25
0.032053 -0.066396 0.601000 105 47 35
0.033198 -0.066396 0.601000 110 52 40
0.034343 -0.066396 0.601000 122 47 37
0.035547 -0.066507 0.602000 123 48 38
0.036754 -0.066617 0.603000 133 46 40
0.037903 -0.066617 0.603000 134 47 41
0.039051 -0.066617 0.603000 139 45 39
0.040200 -0.066617 0.603000 139 45 39
0.041349 -0.066617 0.603000 139 44 36
0.042497 -0.066617 0.603000 139 44 36
0.043646 -0.066617 0.603000 141 43 36
0.044869 -0.066728 0.604000 139 41 34
0.046019 -0.066728 0.604000 138 40 33
0.047170 -0.066728 0.604000 138 40 33
0.048320 -0.066728 0.604000 136 38 31
0.049470 -0.066728 0.604000 136 38 31
0.050621 -0.066728 0.604000 134 39 31
0.051771 -0.066728 0.604000 134 39 31
0.052922 -0.066728 0.604000 133 47 38
0.054072 -0.066728 0.604000 143 57 48
0.055223 -0.066728 0.604000 153 94 85
0.056373 -0.066728 0.604000 172 113 104
0.057524 -0.066728 0.604000 183 149 141
0.058674 -0.066728 0.604000 192 158 150
0.059924 -0.066838 0.605000 184 158 147
0.061076 -0.066838 0.605000 185 159 148
0.062229 -0.066838 0.605000 199 165 153
0.063381 -0.066838 0.605000 153 119 107
0.064533 -0.066838 0.605000 130 57 58
0.065686 -0.066838 0.605000 132 59 60
0.066949 -0.066949 0.606000 142 49 52
0.068215 -0.067059 0.607000 139 46 49
0.069486 -0.067170 0.608000 140 45 42
0.070644 -0.067170 0.608000 139 44 41
0.071802 -0.067170 0.608000 139 45 39
0.073080 -0.067280 0.609000 138 44 38
0.074240 -0.067280 0.609000 138 44 36
0.075524 -0.067390 0.610000 138 44 36
0.076811 -0.067501 0.611000 139 45 34
0.077975 -0.067501 0.611000 139 45 34
0.079139 -0.067501 0.611000 138 45 34
0.080434 -0.067611 0.612000 139 46 35
0.081733 -0.067722 0.613000 137 47 35
0.082901 -0.067722 0.613000 134 44 32
0.084206 -0.067832 0.614000 129 38 31
0.084819 -0.067390 0.610000 124 33 26
0.086122 -0.067501 0.611000 124 29 26
0.087286 -0.067501 0.611000 122 27 24
0.088594 -0.067611 0.612000 128 28 24
0.089907 -0.067722 0.613000 129 29 25
0.091074 -0.067722 0.613000 135 29 25
0.092392 -0.067832 0.614000 135 29 25
0.093714 -0.067943 0.615000 138 31 23
0.095194 -0.068164 0.617000 138 31 23
0.096370 -0.068164 0.617000 140 31 23
0.097703 -0.068274 0.618000 140 31 23
0.099040 -0.068385 0.619000 142 33 25
0.100381 -0.068495 0.620000 144 35 27
0.102381 -0.069048 0.625000 146 36 24
0.103737 -0.069158 0.626000 147 37 25
0.105097 -0.069269 0.627000 153 35 26
0.106461 -0.069379 0.628000 152 34 25
0.107829 -0.069490 0.629000 154 34 25
0.107987 -0.068827 0.623000 155 35 26
0.109349 -0.068937 0.624000 155 35 26
0.110714 -0.069048 0.625000 155 35 26
0.111905 -0.069048 0.625000 155 33 25
0.113276 -0.069158 0.626000 155 33 25
0.115383 -0.069710 0.631000 156 34 26
0.116030 -0.069379 0.628000 158 36 28
0.118160 -0.069931 0.633000 156 34 26
0.119743 -0.070152 0.635000 155 33 25
0.121143 -0.070263 0.636000 156 34 26
0.122547 -0.070373 0.637000 156 34 26
0.124149 -0.070594 0.639000 156 34 26
0.125562 -0.070705 0.640000 156 34 26
0.126979 -0.070815 0.641000 154 38 28
0.128600 -0.071036 0.643000 152 36 26
0.130027 -0.071147 0.644000 139 42 32
0.131661 -0.071368 0.646000 137 40 30
0.133097 -0.071478 0.647000 126 39 33
0.134537 -0.071589 0.648000 122 35 29
0.136190 -0.071810 0.650000 118 35 30
0.137640 -0.071920 0.651000 117 34 29
0.138880 -0.071920 0.651000 113 36 31
0.140335 -0.072030 0.652000 109 32 27
0.141794 -0.072141 0.653000 107 31 28
