ply
format ascii 1.0
element vertex 1339
property float x
property float y
property float z
property uchar red
property uchar green
property uchar blue
end_header
0.205594 0.003446 0.603000 77 23 13
0.205714 0.003429 0.600000 78 24 14
0.207202 0.003434 0.601000 78 24 14
0.211120 0.003480 0.609000 78 24 14
0.210189 0.003446 0.603000 79 25 15
0.211688 0.003451 0.604000 80 26 16
0.213190 0.003457 0.605000 82 28 18
0.214697 0.003463 0.606000 83 29 19
0.216208 0.003469 0.607000 84 30 20
0.217722 0.003474 0.608000 86 31 26
0.219240 0.003480 0.609000 90 35 30
0.223295 0.003526 0.617000 78 36 35
0.031299 0.004815 0.632000 100 74 74
0.032451 0.004808 0.631000 112 86 86
0.033547 0.004792 0.629000 117 85 81
0.034524 0.004762 0.625000 110 78 74
0.035486 0.004731 0.621000 112 74 67
0.036491 0.004709 0.618000 114 76 69
0.037547 0.004693 0.616000 126 85 68
0.038531 0.004670 0.613000 125 84 67
0.039505 0.004648 0.610000 128 82 64
0.040400 0.004617 0.606000 131 85 67
0.040731 0.004526 0.594000 131 87 67
0.041722 0.004510 0.592000 131 87 67
0.042488 0.004472 0.587000 128 84 64
0.043457 0.004457 0.585000 124 80 60
0.044190 0.004419 0.580000 125 80 57
0.045139 0.004404 0.578000 128 83 60
0.046160 0.004396 0.577000 130 86 58
0.047013 0.004373 0.574000 133 89 61
0.048023 0.004366 0.573000 135 91 63
0.048857 0.004343 0.570000 109 65 37
0.049855 0.004335 0.569000 90 30 19
0.050760 0.004320 0.567000 83 23 12
0.051749 0.004312 0.566000 84 18 12
0.052733 0.004305 0.565000 83 17 11
0.053619 0.004290 0.563000 83 17 11
0.054594 0.004282 0.562000 81 15 9
0.055566 0.004274 0.561000 83 17 11
0.056533 0.004267 0.560000 83 17 11
0.057600 0.004267 0.560000 83 17 11
0.058562 0.004259 0.559000 81 15 9
0.060907 0.004350 0.571000 81 15 9
0.061994 0.004350 0.571000 81 15 9
0.061867 0.004267 0.560000 81 15 9
0.062933 0.004267 0.560000 81 15 9
0.064000 0.004267 0.560000 81 15 9
0.065067 0.004267 0.560000 81 15 9
0.066133 0.004267 0.560000 81 15 9
0.067200 0.004267 0.560000 81 15 9
0.068267 0.004267 0.560000 81 15 9
0.069333 0.004267 0.560000 83 17 11
0.070400 0.004267 0.560000 83 20 6
0.072870 0.004350 0.571000 84 21 7
0.073958 0.004350 0.571000 106 65 16
0.075046 0.004350 0.571000 117 76 27
0.076133 0.004350 0.571000 114 83 15
0.077221 0.004350 0.571000 113 82 14
0.078309 0.004350 0.571000 105 75 18
0.079396 0.004350 0.571000 89 59 2
0.080484 0.004350 0.571000 74 47 10
0.081571 0.004350 0.571000 98 71 34
0.082659 0.004350 0.571000 93 71 36
0.082867 0.004305 0.565000 78 56 21
0.083943 0.004305 0.565000 72 50 24
0.085922 0.004350 0.571000 85 63 37
0.086248 0.004312 0.566000 76 59 34
0.087326 0.004312 0.566000 46 29 4
0.088404 0.004312 0.566000 78 62 41
0.089640 0.004320 0.567000 73 57 36
0.090880 0.004328 0.568000 54 37 21
0.091962 0.004328 0.568000 57 40 24
0.093044 0.004328 0.568000 83 67 44
0.094126 0.004328 0.568000 71 55 32
0.095375 0.004335 0.569000 73 57 25
0.096459 0.004335 0.569000 92 76 44
0.097543 0.004335 0.569000 101 82 39
0.098800 0.004343 0.570000 102 83 40
0.099886 0.004343 0.570000 105 82 34
0.100971 0.004343 0.570000 104 81 33
0.102057 0.004343 0.570000 109 78 24
0.103143 0.004343 0.570000 108 77 23
0.104229 0.004343 0.570000 91 50 15
0.105499 0.004350 0.571000 59 18 0
0.106587 0.004350 0.571000 66 18 3
0.107674 0.004350 0.571000 67 19 4
0.108952 0.004358 0.572000 72 15 6
0.110042 0.004358 0.572000 72 15 6
0.111326 0.004366 0.573000 71 14 5
0.112417 0.004366 0.573000 71 14 5
0.112716 0.004335 0.569000 72 15 6
0.114800 0.004373 0.574000 72 15 6
0.117710 0.004442 0.583000 72 15 6
0.119025 0.004450 0.584000 72 15 6
0.120343 0.004457 0.585000 72 15 6
0.119796 0.004396 0.577000 72 15 6
0.121105 0.004404 0.578000 72 15 6
0.122417 0.004411 0.579000 72 15 6
0.123520 0.004411 0.579000 72 15 6
0.124838 0.004419 0.580000 72 15 6
0.126160 0.004427 0.581000 72 15 6
0.127486 0.004434 0.582000 72 15 6
0.128594 0.004434 0.582000 72 15 6
0.129926 0.004442 0.583000 72 15 6
0.131036 0.004442 0.583000 70 16 6
0.132373 0.004450 0.584000 70 16 6
0.133486 0.004450 0.584000 70 16 6
0.136903 0.004526 0.594000 70 16 6
0.135943 0.004457 0.585000 69 17 6
0.139166 0.004526 0.594000 69 17 6
0.140297 0.004526 0.594000 69 17 6
0.141429 0.004526 0.594000 69 17 6
0.142560 0.004526 0.594000 70 18 9
0.143691 0.004526 0.594000 69 17 8
0.144579 0.004518 0.593000 67 18 8
0.145709 0.004518 0.593000 67 18 8
0.146590 0.004510 0.592000 66 19 8
0.147718 0.004510 0.592000 65 18 7
0.148846 0.004510 0.592000 62 17 6
0.149973 0.004510 0.592000 62 17 6
0.151101 0.004510 0.592000 58 16 4
0.152229 0.004510 0.592000 58 16 4
0.153356 0.004510 0.592000 57 16 6
0.154484 0.004510 0.592000 56 15 5
0.155611 0.004510 0.592000 56 15 5
0.153562 0.004419 0.580000 56 15 5
0.154667 0.004419 0.580000 57 16 6
0.156040 0.004427 0.581000 57 16 6
0.157147 0.004427 0.581000 59 18 8
0.158253 0.004427 0.581000 59 18 8
0.159360 0.004427 0.581000 59 18 8
0.160743 0.004434 0.582000 57 16 6
0.161851 0.004434 0.582000 59 18 8
0.163240 0.004442 0.583000 60 19 9
0.164632 0.004450 0.584000 61 18 9
0.165745 0.004450 0.584000 61 18 9
0.167143 0.004457 0.585000 64 18 10
0.168545 0.004465 0.586000 64 18 10
0.169950 0.004472 0.587000 66 18 10
0.171360 0.004480 0.588000 67 19 11
0.172773 0.004488 0.589000 67 19 11
0.173895 0.004488 0.589000 67 19 11
0.175314 0.004495 0.590000 68 21 10
0.176737 0.004503 0.591000 68 21 10
0.178164 0.004510 0.592000 69 22 11
0.179291 0.004510 0.592000 69 22 11
0.180419 0.004510 0.592000 70 21 11
0.181853 0.004518 0.593000 72 23 13
0.182983 0.004518 0.593000 70 21 9
0.185044 0.004541 0.596000 70 21 9
0.186491 0.004549 0.597000 72 20 9
0.187629 0.004549 0.597000 72 20 9
0.188766 0.004549 0.597000 75 21 11
0.190221 0.004556 0.598000 75 21 11
0.191680 0.004564 0.599000 75 21 11
0.192821 0.004564 0.599000 75 21 11
0.194286 0.004571 0.600000 75 21 11
0.195429 0.004571 0.600000 75 21 11
0.196899 0.004579 0.601000 77 20 11
0.198044 0.004579 0.601000 77 20 11
0.199189 0.004579 0.601000 77 20 11
0.200667 0.004587 0.602000 78 21 12
0.202149 0.004594 0.603000 78 21 12
0.204309 0.004617 0.606000 78 21 12
0.204446 0.004594 0.603000 78 21 12
0.206958 0.004625 0.607000 79 22 13
0.208457 0.004632 0.608000 80 23 14
0.209960 0.004640 0.609000 81 24 15
0.211467 0.004648 0.610000 81 24 15
0.212977 0.004655 0.611000 81 24 15
0.214491 0.004663 0.612000 82 25 16
0.216010 0.004670 0.613000 85 28 19
0.217531 0.004678 0.614000 84 30 22
0.219057 0.004686 0.615000 85 31 23
0.220587 0.004693 0.616000 81 34 33
0.222120 0.004701 0.617000 79 32 31
0.030853 0.005933 0.623000 98 72 72
0.032297 0.005981 0.628000 109 83 83
0.033440 0.005971 0.627000 118 83 80
0.034469 0.005943 0.624000 111 76 73
0.035429 0.005905 0.620000 110 74 66
0.036432 0.005876 0.617000 111 75 67
0.037547 0.005867 0.616000 125 83 69
0.038531 0.005838 0.613000 125 83 69
0.039570 0.005819 0.611000 126 82 62
0.040200 0.005743 0.603000 129 85 65
0.040389 0.005610 0.589000 133 87 67
0.041863 0.005657 0.594000 132 86 66
0.042126 0.005543 0.582000 128 84 64
0.043086 0.005524 0.580000 124 80 60
0.043962 0.005495 0.577000 125 80 57
0.045217 0.005514 0.579000 128 83 60
0.046160 0.005495 0.577000 130 85 60
0.047095 0.005476 0.575000 132 87 62
0.048023 0.005457 0.573000 131 89 61
0.048943 0.005438 0.571000 129 87 59
0.049855 0.005419 0.569000 86 28 14
0.050850 0.005410 0.568000 82 24 10
0.051840 0.005400 0.567000 84 18 12
0.052827 0.005390 0.566000 83 17 11
0.053714 0.005371 0.564000 83 17 11
0.054789 0.005371 0.564000 83 17 11
0.055764 0.005362 0.563000 83 17 11
0.056634 0.005343 0.561000 83 17 11
0.057600 0.005333 0.560000 81 15 9
0.059924 0.005448 0.572000 81 15 9
0.061013 0.005448 0.572000 81 15 9
0.060909 0.005343 0.561000 81 15 9
0.061977 0.005343 0.561000 81 15 9
0.063046 0.005343 0.561000 81 15 9
0.064114 0.005343 0.561000 81 15 9
0.065183 0.005343 0.561000 81 15 9
0.066251 0.005343 0.561000 81 15 9
0.067320 0.005343 0.561000 81 15 9
0.068389 0.005343 0.561000 83 17 11
0.069457 0.005343 0.561000 83 17 11
0.070526 0.005343 0.561000 83 20 8
0.071594 0.005343 0.561000 84 21 9
0.072663 0.005343 0.561000 106 65 18
0.075177 0.005448 0.572000 116 75 28
0.076267 0.005448 0.572000 112 83 17
0.077356 0.005448 0.572000 111 82 16
0.078446 0.005448 0.572000 104 77 24
0.079535 0.005448 0.572000 73 46 0
0.080625 0.005448 0.572000 63 40 10
0.081714 0.005448 0.572000 91 68 38
0.082804 0.005448 0.572000 86 67 38
0.083893 0.005448 0.572000 58 39 10
0.084091 0.005390 0.566000 56 38 18
0.085170 0.005390 0.566000 91 73 53
0.086400 0.005400 0.567000 81 65 42
0.087480 0.005400 0.567000 48 32 9
0.088560 0.005400 0.567000 76 60 39
0.089798 0.005410 0.568000 80 64 43
0.090880 0.005410 0.568000 51 35 14
0.091962 0.005410 0.568000 55 39 18
0.093208 0.005419 0.569000 69 56 32
0.094291 0.005419 0.569000 73 60 36
0.095375 0.005419 0.569000 80 64 32
0.096459 0.005419 0.569000 91 75 43
0.097543 0.005419 0.569000 106 82 41
0.098800 0.005429 0.570000 106 82 41
0.099886 0.005429 0.570000 107 82 33
0.100971 0.005429 0.570000 106 81 32
0.102057 0.005429 0.570000 109 81 23
0.103143 0.005429 0.570000 106 78 20
0.104411 0.005438 0.571000 97 56 21
0.105499 0.005438 0.571000 60 19 0
0.106587 0.005438 0.571000 66 18 3
0.107674 0.005438 0.571000 66 18 3
0.108952 0.005448 0.572000 70 16 6
0.110042 0.005448 0.572000 69 15 5
0.111326 0.005457 0.573000 71 14 5
0.112417 0.005457 0.573000 71 14 5
0.112914 0.005429 0.570000 71 14 5
0.114800 0.005467 0.574000 72 15 6
0.117912 0.005562 0.584000 72 15 6
0.119229 0.005571 0.585000 72 15 6
0.120549 0.005581 0.586000 71 14 5
0.121872 0.005590 0.587000 72 15 6
0.123200 0.005600 0.588000 72 15 6
0.122417 0.005514 0.579000 72 15 6
0.123520 0.005514 0.579000 72 15 6
0.124838 0.005524 0.580000 72 15 6
0.126160 0.005533 0.581000 72 15 6
0.127486 0.005543 0.582000 72 15 6
0.128594 0.005543 0.582000 72 15 6
0.129926 0.005552 0.583000 72 15 6
0.133509 0.005657 0.594000 72 15 6
0.132373 0.005562 0.584000 72 15 6
0.133714 0.005571 0.585000 69 15 5
0.134829 0.005571 0.585000 69 15 5
0.138034 0.005657 0.594000 68 16 5
0.139166 0.005657 0.594000 68 16 5
0.140297 0.005657 0.594000 66 17 7
0.141429 0.005657 0.594000 66 17 7
0.142560 0.005657 0.594000 67 18 8
0.143691 0.005657 0.594000 66 17 7
0.144823 0.005657 0.594000 66 19 8
0.145954 0.005657 0.594000 65 18 7
0.146838 0.005648 0.593000 63 18 7
0.147968 0.005648 0.593000 63 18 7
0.149097 0.005648 0.593000 62 17 6
0.150227 0.005648 0.593000 62 17 6
0.151356 0.005648 0.593000 58 16 4
0.152743 0.005657 0.594000 58 16 4
0.153874 0.005657 0.594000 57 17 4
0.155006 0.005657 0.594000 56 16 3
0.156137 0.005657 0.594000 57 16 6
0.157269 0.005657 0.594000 57 16 6
0.158400 0.005657 0.594000 57 16 6
0.156309 0.005543 0.582000 59 18 8
0.157417 0.005543 0.582000 59 18 8
0.158526 0.005543 0.582000 59 18 8
0.159909 0.005552 0.583000 60 17 8
0.161019 0.005552 0.583000 60 17 8
0.162408 0.005562 0.584000 60 17 8
0.163520 0.005562 0.584000 61 18 9
0.164914 0.005571 0.585000 64 18 10
0.166312 0.005581 0.586000 64 18 10
0.167714 0.005590 0.587000 67 17 10
0.169120 0.005600 0.588000 68 18 11
0.170530 0.005610 0.589000 68 18 11
0.171651 0.005610 0.589000 69 19 12
0.173067 0.005619 0.590000 69 19 12
0.178029 0.005743 0.603000 69 19 12
0.175611 0.005629 0.591000 69 20 10
0.177036 0.005638 0.592000 69 20 10
0.178465 0.005648 0.593000 70 21 11
0.179594 0.005648 0.593000 70 21 11
0.180724 0.005648 0.593000 70 21 9
0.181853 0.005648 0.593000 72 23 11
0.183909 0.005676 0.596000 72 20 9
0.185354 0.005686 0.597000 72 20 9
0.186804 0.005695 0.598000 72 20 9
0.187943 0.005695 0.598000 72 20 9
0.189082 0.005695 0.598000 75 21 11
0.190539 0.005705 0.599000 75 21 11
0.192000 0.005714 0.600000 75 21 11
0.193143 0.005714 0.600000 75 21 11
0.194610 0.005724 0.601000 75 21 11
0.195754 0.005724 0.601000 75 21 11
0.197227 0.005733 0.602000 77 20 11
0.198373 0.005733 0.602000 77 20 11
0.199520 0.005733 0.602000 77 20 11
0.201000 0.005743 0.603000 77 20 11
0.202484 0.005752 0.604000 78 21 12
0.204646 0.005781 0.607000 78 21 12
0.205124 0.005762 0.605000 79 22 13
0.207640 0.005800 0.609000 79 22 13
0.208800 0.005800 0.609000 80 23 14
0.210305 0.005810 0.610000 80 23 14
0.211813 0.005819 0.611000 79 25 15
0.213326 0.005829 0.612000 79 25 15
0.214842 0.005838 0.613000 79 27 18
0.216362 0.005848 0.614000 83 31 22
0.217886 0.005857 0.615000 84 37 36
0.219413 0.005867 0.616000 104 57 56
0.032246 0.007166 0.627000 104 83 82
0.033387 0.007154 0.626000 115 80 77
0.034469 0.007131 0.624000 109 74 71
0.035371 0.007074 0.619000 109 72 67
0.036432 0.007051 0.617000 109 72 67
0.037547 0.007040 0.616000 124 82 68
0.038469 0.006994 0.612000 125 83 69
0.039505 0.006971 0.610000 127 83 63
0.040333 0.006914 0.605000 129 85 65
0.041280 0.006880 0.602000 130 86 66
0.042145 0.006834 0.598000 129 85 65
0.042270 0.006674 0.584000 127 83 63
0.043309 0.006663 0.583000 124 80 60
0.044190 0.006629 0.580000 124 79 56
0.045295 0.006629 0.580000 126 81 58
0.046240 0.006606 0.578000 129 84 59
0.046931 0.006549 0.573000 131 86 61
0.048107 0.006560 0.574000 130 88 58
0.048857 0.006514 0.570000 128 86 56
0.049768 0.006491 0.568000 91 33 19
0.050939 0.006503 0.569000 80 22 8
0.051931 0.006491 0.568000 84 19 10
0.052920 0.006480 0.567000 83 18 9
0.053810 0.006457 0.565000 83 18 9
0.054886 0.006457 0.565000 83 18 9
0.055665 0.006423 0.562000 83 17 11
0.056735 0.006423 0.562000 83 17 11
0.058937 0.006549 0.573000 83 17 11
0.060029 0.006549 0.573000 81 15 9
0.061120 0.006549 0.573000 81 15 9
0.062211 0.006549 0.573000 83 17 11
0.063303 0.006549 0.573000 81 15 9
0.064394 0.006549 0.573000 81 15 9
0.065486 0.006549 0.573000 81 15 9
0.066577 0.006549 0.573000 81 15 9
0.066251 0.006411 0.561000 81 15 9
0.067320 0.006411 0.561000 81 15 9
0.068389 0.006411 0.561000 83 17 11
0.069457 0.006411 0.561000 83 17 11
0.070526 0.006411 0.561000 83 20 8
0.071594 0.006411 0.561000 85 22 10
0.074217 0.006549 0.573000 97 53 10
0.075309 0.006549 0.573000 119 75 32
0.076400 0.006549 0.573000 112 83 19
0.077491 0.006549 0.573000 112 83 19
0.078583 0.006549 0.573000 105 77 29
0.079674 0.006549 0.573000 70 42 0
0.080766 0.006549 0.573000 57 35 9
0.081857 0.006549 0.573000 87 65 39
0.082949 0.006549 0.573000 82 65 38
0.084040 0.006549 0.573000 48 31 4
0.084240 0.006480 0.567000 54 35 20
0.085320 0.006480 0.567000 70 51 36
0.086400 0.006480 0.567000 76 60 39
0.088560 0.006560 0.574000 65 49 28
0.088716 0.006491 0.568000 80 65 39
0.089956 0.006503 0.569000 97 82 56
0.091040 0.006503 0.569000 86 71 45
0.092124 0.006503 0.569000 67 52 26
0.093371 0.006514 0.570000 74 57 32
0.094457 0.006514 0.570000 82 65 40
0.095543 0.006514 0.570000 89 71 37
0.096629 0.006514 0.570000 83 65 31
0.097714 0.006514 0.570000 92 65 28
0.098973 0.006526 0.571000 110 83 46
0.100061 0.006526 0.571000 111 84 33
0.101149 0.006526 0.571000 109 82 31
0.102236 0.006526 0.571000 109 81 21
0.103324 0.006526 0.571000 106 78 18
0.104594 0.006537 0.572000 97 56 19
0.105684 0.006537 0.572000 60 19 0
0.106773 0.006537 0.572000 65 17 2
0.107863 0.006537 0.572000 66 18 3
0.109143 0.006549 0.573000 69 15 5
0.110234 0.006549 0.573000 69 15 5
0.111520 0.006560 0.574000 71 14 5
0.112613 0.006560 0.574000 71 14 5
0.113112 0.006526 0.571000 71 14 5
0.115000 0.006571 0.575000 71 14 5
0.117912 0.006674 0.584000 72 15 6
0.119229 0.006686 0.585000 71 14 5
0.118697 0.006594 0.577000 71 14 5
0.121872 0.006709 0.587000 72 15 6
0.123200 0.006720 0.588000 72 15 6
0.122629 0.006629 0.580000 72 15 6
0.123733 0.006629 0.580000 71 14 5
0.125053 0.006640 0.581000 72 15 6
0.126377 0.006651 0.582000 72 15 6
0.127486 0.006651 0.582000 71 14 5
0.128815 0.006663 0.583000 72 15 6
0.130149 0.006674 0.584000 72 15 6
0.133509 0.006789 0.594000 69 15 5
0.132600 0.006686 0.585000 69 15 5
0.135771 0.006789 0.594000 68 16 5
0.136903 0.006789 0.594000 68 16 5
0.138267 0.006800 0.595000 66 17 5
0.139400 0.006800 0.595000 66 17 5
0.140533 0.006800 0.595000 65 16 6
0.141667 0.006800 0.595000 65 16 6
0.142800 0.006800 0.595000 66 17 7
0.143933 0.006800 0.595000 66 17 7
0.145067 0.006800 0.595000 65 18 7
0.146200 0.006800 0.595000 65 18 7
0.147086 0.006789 0.594000 63 18 7
0.148217 0.006789 0.594000 62 17 6
0.149349 0.006789 0.594000 60 18 6
0.150480 0.006789 0.594000 60 18 6
0.151611 0.006789 0.594000 58 16 4
0.153000 0.006800 0.595000 60 18 6
0.154133 0.006800 0.595000 60 18 6
0.155267 0.006800 0.595000 58 16 4
0.156400 0.006800 0.595000 58 15 6
0.157533 0.006800 0.595000 58 15 6
0.158667 0.006800 0.595000 60 17 8
0.159800 0.006800 0.595000 61 18 9
0.157688 0.006663 0.583000 61 18 9
0.158798 0.006663 0.583000 61 18 9
0.160183 0.006674 0.584000 63 17 9
0.161295 0.006674 0.584000 63 17 9
0.162686 0.006686 0.585000 65 17 9
0.163800 0.006686 0.585000 65 17 9
0.165196 0.006697 0.586000 67 17 10
0.166596 0.006709 0.587000 67 17 10
0.168000 0.006720 0.588000 70 17 11
0.169408 0.006731 0.589000 70 17 11
0.170530 0.006731 0.589000 70 17 11
0.171943 0.006743 0.590000 71 18 12
0.176880 0.006891 0.603000 71 18 12
0.178324 0.006903 0.604000 71 18 12
0.175909 0.006766 0.592000 71 19 10
0.177335 0.006777 0.593000 71 19 10
0.178465 0.006777 0.593000 72 20 11
0.179897 0.006789 0.594000 72 20 11
0.181029 0.006789 0.594000 72 20 9
0.182773 0.006811 0.596000 74 22 11
0.184217 0.006823 0.597000 72 20 9
0.185665 0.006834 0.598000 72 20 9
0.187116 0.006846 0.599000 74 22 11
0.188257 0.006846 0.599000 74 22 11
0.189398 0.006846 0.599000 75 21 11
0.190857 0.006857 0.600000 73 19 9
0.192320 0.006869 0.601000 75 21 11
0.193465 0.006869 0.601000 75 21 11
0.194933 0.006880 0.602000 75 21 11
0.196080 0.006880 0.602000 75 21 11
0.197554 0.006891 0.603000 77 20 11
0.199032 0.006903 0.604000 77 20 11
0.200183 0.006903 0.604000 77 20 11
0.201333 0.006903 0.604000 78 21 12
0.202819 0.006914 0.605000 78 21 12
0.204983 0.006949 0.608000 78 21 12
0.206480 0.006960 0.609000 79 22 13
0.207981 0.006971 0.610000 79 22 13
0.209143 0.006971 0.610000 77 23 13
0.210650 0.006983 0.611000 78 24 14
0.212160 0.006994 0.612000 78 26 15
0.213674 0.007006 0.613000 79 27 16
0.215192 0.007017 0.614000 78 32 24
0.216714 0.007029 0.615000 86 40 32
0.032349 0.008387 0.629000 94 78 73
0.033493 0.008373 0.628000 113 77 77
0.034469 0.008320 0.624000 108 72 72
0.035429 0.008267 0.620000 109 70 66
0.036491 0.008240 0.618000 109 70 66
0.037486 0.008200 0.615000 119 77 65
0.038406 0.008147 0.611000 124 82 70
0.039310 0.008093 0.607000 127 86 65
0.040267 0.008053 0.604000 128 87 66
0.041211 0.008013 0.601000 130 86 66
0.042074 0.007960 0.597000 127 83 63
0.042777 0.007880 0.591000 124 80 60
0.043383 0.007787 0.584000 123 79 59
0.044267 0.007747 0.581000 124 79 56
0.045373 0.007747 0.581000 125 80 57
0.046320 0.007720 0.579000 127 80 56
0.047013 0.007653 0.574000 130 83 59
0.047939 0.007627 0.572000 131 87 59
0.048857 0.007600 0.570000 129 85 57
0.049855 0.007587 0.569000 95 37 21
0.050760 0.007560 0.567000 81 23 7
0.052023 0.007587 0.569000 84 19 10
0.052920 0.007560 0.567000 84 19 10
0.053905 0.007547 0.566000 83 18 9
0.054886 0.007533 0.565000 83 18 9
0.055665 0.007493 0.562000 83 18 9
0.057846 0.007640 0.573000 83 18 9
0.058937 0.007640 0.573000 81 16 7
0.060029 0.007640 0.573000 81 16 7
0.061120 0.007640 0.573000 81 16 7
0.062211 0.007640 0.573000 81 16 7
0.063303 0.007640 0.573000 81 16 7
0.064394 0.007640 0.573000 81 16 7
0.065486 0.007640 0.573000 81 16 7
0.066577 0.007640 0.573000 81 16 7
0.066251 0.007480 0.561000 81 16 7
0.067320 0.007480 0.561000 81 16 7
0.068389 0.007480 0.561000 83 18 9
0.069457 0.007480 0.561000 83 18 9
0.070526 0.007480 0.561000 83 20 8
0.071594 0.007480 0.561000 86 23 11
0.072663 0.007480 0.561000 93 49 8
0.075309 0.007640 0.573000 119 75 34
0.076400 0.007640 0.573000 112 83 19
0.077491 0.007640 0.573000 112 83 19
0.078583 0.007640 0.573000 106 81 34
0.079674 0.007640 0.573000 69 44 0
0.080766 0.007640 0.573000 56 33 12
0.081857 0.007640 0.573000 85 62 41
0.082949 0.007640 0.573000 90 73 44
0.084040 0.007640 0.573000 63 46 17
0.084240 0.007560 0.567000 51 33 13
0.086373 0.007653 0.574000 63 45 25
0.087467 0.007653 0.574000 73 57 36
0.088560 0.007653 0.574000 73 57 36
0.088716 0.007573 0.568000 86 69 40
0.089956 0.007587 0.569000 98 81 52
0.091040 0.007587 0.569000 87 70 43
0.093095 0.007667 0.575000 72 55 28
0.093371 0.007600 0.570000 74 55 30
0.094457 0.007600 0.570000 92 73 48
0.096549 0.007680 0.576000 95 72 40
0.096629 0.007600 0.570000 78 55 23
0.097714 0.007600 0.570000 77 47 11
0.098973 0.007613 0.571000 112 82 46
0.100061 0.007613 0.571000 111 84 33
0.101149 0.007613 0.571000 109 82 31
0.102415 0.007627 0.572000 109 81 21
0.103505 0.007627 0.572000 106 78 18
0.104777 0.007640 0.573000 101 60 21
0.105869 0.007640 0.573000 62 21 0
0.106960 0.007640 0.573000 65 17 2
0.108051 0.007640 0.573000 66 18 3
0.109333 0.007653 0.574000 69 15 5
0.110427 0.007653 0.574000 69 15 5
0.111520 0.007653 0.574000 71 14 5
0.112810 0.007667 0.575000 71 14 5
0.115291 0.007760 0.582000 71 14 5
0.115200 0.007680 0.576000 71 14 5
0.117912 0.007787 0.584000 72 15 6
0.119229 0.007800 0.585000 71 14 5
0.118903 0.007707 0.578000 71 14 5
0.121872 0.007827 0.587000 71 14 5
0.123200 0.007840 0.588000 71 14 5
0.122629 0.007733 0.580000 71 14 5
0.123947 0.007747 0.581000 71 14 5
0.125269 0.007760 0.582000 72 15 6
0.126594 0.007773 0.583000 69 15 5
0.127705 0.007773 0.583000 69 15 5
0.131025 0.007907 0.593000 69 15 5
0.132377 0.007920 0.594000 69 15 5
0.133509 0.007920 0.594000 69 15 5
0.134640 0.007920 0.594000 69 15 5
0.135771 0.007920 0.594000 66 17 5
0.136903 0.007920 0.594000 65 16 4
0.138267 0.007933 0.595000 65 16 6
0.139400 0.007933 0.595000 65 16 6
0.140533 0.007933 0.595000 64 17 6
0.141667 0.007933 0.595000 64 17 6
0.142800 0.007933 0.595000 65 18 7
0.143933 0.007933 0.595000 64 17 6
0.145067 0.007933 0.595000 65 18 7
0.146200 0.007933 0.595000 64 17 6
0.147333 0.007933 0.595000 62 17 6
0.148467 0.007933 0.595000 62 17 6
0.149600 0.007933 0.595000 62 17 6
0.150733 0.007933 0.595000 62 17 6
0.151867 0.007933 0.595000 58 16 4
0.150429 0.007800 0.585000 60 18 6
0.154392 0.007947 0.596000 60 18 6
0.155528 0.007947 0.596000 60 18 6
0.156663 0.007947 0.596000 60 18 6
0.157798 0.007947 0.596000 60 18 6
0.158933 0.007947 0.596000 61 19 7
0.160069 0.007947 0.596000 61 19 7
0.161474 0.007960 0.597000 63 18 7
0.162611 0.007960 0.597000 63 18 7
0.160457 0.007800 0.585000 66 19 8
0.165162 0.007973 0.598000 66 19 8
0.166579 0.007987 0.599000 67 18 8
0.167720 0.007987 0.599000 67 18 8
0.169143 0.008000 0.600000 70 18 9
0.170570 0.008013 0.601000 70 18 9
0.172000 0.008027 0.602000 70 18 9
0.173434 0.008040 0.603000 71 19 10
0.174583 0.008040 0.603000 71 19 10
0.176023 0.008053 0.604000 71 19 10
0.177467 0.008067 0.605000 71 19 10
0.178619 0.008067 0.605000 72 20 11
0.180069 0.008080 0.606000 71 19 10
0.181223 0.008080 0.606000 72 20 11
0.178766 0.007920 0.594000 72 20 11
0.180200 0.007933 0.595000 72 20 11
0.181333 0.007933 0.595000 72 20 9
0.183080 0.007960 0.597000 74 22 11
0.184526 0.007973 0.598000 72 20 9
0.185975 0.007987 0.599000 72 20 9
0.187116 0.007987 0.599000 75 21 11
0.188571 0.008000 0.600000 75 21 11
0.189714 0.008000 0.600000 75 21 11
0.191175 0.008013 0.601000 73 19 9
0.192640 0.008027 0.602000 75 21 11
0.193787 0.008027 0.602000 75 21 11
0.195257 0.008040 0.603000 75 21 11
0.196406 0.008040 0.603000 75 21 11
0.197882 0.008053 0.604000 75 21 11
0.199032 0.008053 0.604000 75 21 11
0.200183 0.008053 0.604000 75 21 11
0.201667 0.008067 0.605000 75 21 11
0.203154 0.008080 0.606000 75 21 11
0.205320 0.008120 0.609000 76 22 12
0.206819 0.008133 0.610000 75 23 12
0.208322 0.008147 0.611000 75 23 12
0.209486 0.008147 0.611000 74 25 15
0.210994 0.008160 0.612000 75 26 16
0.212507 0.008173 0.613000 74 29 18
0.214023 0.008187 0.614000 78 33 22
0.032297 0.009570 0.628000 88 77 72
0.033440 0.009554 0.627000 107 74 73
0.034469 0.009509 0.624000 104 71 70
0.035486 0.009463 0.621000 108 69 65
0.036550 0.009432 0.619000 108 69 65
0.037425 0.009356 0.614000 115 73 61
0.038343 0.009295 0.610000 122 80 68
0.039310 0.009250 0.607000 127 86 65
0.040267 0.009204 0.604000 129 88 67
0.041211 0.009158 0.601000 130 86 66
0.042145 0.009112 0.598000 126 82 62
0.042850 0.009021 0.592000 124 78 58
0.043457 0.008914 0.585000 123 77 57
0.044343 0.008869 0.582000 124 77 55
0.045530 0.008884 0.583000 125 78 56
0.046400 0.008838 0.580000 127 80 56
0.047177 0.008777 0.576000 127 80 56
0.048023 0.008731 0.573000 130 86 58
0.048943 0.008701 0.571000 130 86 58
0.049943 0.008686 0.570000 94 36 20
0.050850 0.008655 0.568000 80 22 6
0.052023 0.008670 0.569000 83 18 9
0.052920 0.008640 0.567000 84 19 10
0.054000 0.008640 0.567000 83 18 9
0.054983 0.008625 0.566000 83 18 9
0.056061 0.008625 0.566000 83 18 9
0.056836 0.008579 0.563000 83 18 9
0.058011 0.008594 0.564000 81 16 7
0.059086 0.008594 0.564000 81 16 7
0.061227 0.008747 0.574000 83 18 9
0.062320 0.008747 0.574000 81 16 7
0.063413 0.008747 0.574000 81 16 7
0.064507 0.008747 0.574000 81 16 7
0.065600 0.008747 0.574000 81 16 7
0.066693 0.008747 0.574000 81 16 7
0.067787 0.008747 0.574000 81 16 7
0.068880 0.008747 0.574000 81 16 7
0.068510 0.008564 0.562000 81 16 7
0.069581 0.008564 0.562000 81 16 7
0.070651 0.008564 0.562000 83 20 8
0.071722 0.008564 0.562000 85 22 10
0.074347 0.008747 0.574000 93 48 10
0.075440 0.008747 0.574000 119 74 36
0.076533 0.008747 0.574000 112 83 21
0.077627 0.008747 0.574000 112 83 21
0.078720 0.008747 0.574000 105 80 33
0.079813 0.008747 0.574000 64 39 0
0.080907 0.008747 0.574000 53 31 7
0.082000 0.008747 0.574000 83 61 37
0.083093 0.008747 0.574000 92 76 44
0.084187 0.008747 0.574000 96 80 48
0.084389 0.008655 0.568000 84 65 38
0.085470 0.008655 0.568000 72 53 26
0.086552 0.008655 0.568000 74 57 32
0.088714 0.008762 0.575000 76 59 34
0.088872 0.008670 0.569000 92 71 40
0.089956 0.008670 0.569000 101 80 49
0.092160 0.008777 0.576000 88 66 38
0.093257 0.008777 0.576000 76 54 26
0.094518 0.008792 0.577000 71 47 22
0.095617 0.008792 0.577000 84 60 35
0.096716 0.008792 0.577000 102 75 42
0.096798 0.008701 0.571000 80 53 20
0.097886 0.008701 0.571000 77 45 11
0.098280 0.008640 0.567000 109 77 43
0.100236 0.008716 0.572000 111 82 29
0.101326 0.008716 0.572000 111 82 29
0.102594 0.008731 0.573000 109 81 21
0.103686 0.008731 0.573000 107 79 19
0.104960 0.008747 0.574000 104 64 22
0.106053 0.008747 0.574000 62 22 0
0.107147 0.008747 0.574000 64 18 2
0.108240 0.008747 0.574000 64 18 2
0.109524 0.008762 0.575000 68 16 5
0.110619 0.008762 0.575000 68 16 5
0.111714 0.008762 0.575000 71 14 5
0.113006 0.008777 0.576000 71 14 5
0.114103 0.008777 0.576000 71 14 5
0.116600 0.008884 0.583000 71 14 5
0.116499 0.008792 0.577000 71 14 5
0.119229 0.008914 0.585000 71 14 5
0.120549 0.008930 0.586000 71 14 5
0.121872 0.008945 0.587000 71 14 5
0.123200 0.008960 0.588000 71 14 7
0.124531 0.008975 0.589000 71 14 7
0.125867 0.008990 0.590000 69 15 7
0.127206 0.009006 0.591000 70 16 8
0.128549 0.009021 0.592000 69 15 7
0.129895 0.009036 0.593000 69 15 7
0.131025 0.009036 0.593000 69 15 7
0.132377 0.009051 0.594000 69 15 7
0.133509 0.009051 0.594000 68 16 7
0.134640 0.009051 0.594000 68 16 7
0.135771 0.009051 0.594000 65 16 6
0.136903 0.009051 0.594000 65 16 6
0.138267 0.009067 0.595000 64 17 6
0.139400 0.009067 0.595000 64 17 6
0.140533 0.009067 0.595000 64 17 6
0.141667 0.009067 0.595000 64 17 6
0.142800 0.009067 0.595000 64 17 6
0.143933 0.009067 0.595000 64 17 6
0.145067 0.009067 0.595000 64 17 6
0.146200 0.009067 0.595000 64 17 6
0.147333 0.009067 0.595000 62 17 6
0.148467 0.009067 0.595000 62 17 6
0.149851 0.009082 0.596000 62 17 6
0.148200 0.008914 0.585000 62 17 6
0.149314 0.008914 0.585000 62 17 6
0.150686 0.008930 0.586000 63 18 7
0.154651 0.009097 0.597000 63 18 7
0.155789 0.009097 0.597000 63 18 7
0.156926 0.009097 0.597000 63 18 7
0.158328 0.009112 0.598000 63 18 7
0.159467 0.009112 0.598000 64 19 8
0.160606 0.009112 0.598000 64 19 8
0.162015 0.009128 0.599000 66 19 8
0.163156 0.009128 0.599000 66 19 8
0.164297 0.009128 0.599000 67 18 8
0.165714 0.009143 0.600000 68 19 9
0.167135 0.009158 0.601000 70 18 9
0.168280 0.009158 0.601000 70 18 9
0.169707 0.009173 0.602000 70 18 9
0.171137 0.009189 0.603000 70 18 9
0.172571 0.009204 0.604000 72 18 10
0.174010 0.009219 0.605000 72 18 10
0.175162 0.009219 0.605000 72 18 10
0.176606 0.009234 0.606000 72 18 10
0.177760 0.009234 0.606000 72 18 10
0.178914 0.009234 0.606000 73 19 11
0.180366 0.009250 0.607000 72 18 10
0.181522 0.009250 0.607000 73 19 11
0.179067 0.009067 0.595000 73 19 11
0.180503 0.009082 0.596000 73 19 11
0.181638 0.009082 0.596000 73 19 9
0.183387 0.009112 0.598000 75 21 11
0.184834 0.009128 0.599000 73 19 9
0.186286 0.009143 0.600000 73 19 9
0.187429 0.009143 0.600000 75 21 11
0.188886 0.009158 0.601000 75 21 11
0.190030 0.009158 0.601000 73 19 9
0.191493 0.009173 0.602000 73 19 9
0.192960 0.009189 0.603000 75 21 11
0.194109 0.009189 0.603000 73 19 9
0.195581 0.009204 0.604000 75 21 11
0.196731 0.009204 0.604000 75 21 11
0.198210 0.009219 0.605000 75 21 11
0.199362 0.009219 0.605000 75 21 11
0.200514 0.009219 0.605000 74 22 11
0.202000 0.009234 0.606000 74 22 11
0.203490 0.009250 0.607000 72 23 13
0.205657 0.009295 0.610000 72 23 13
0.207158 0.009310 0.611000 73 26 15
0.208663 0.009326 0.612000 74 27 16
0.209829 0.009326 0.612000 70 30 17
0.033387 0.010731 0.626000 103 70 71
0.034413 0.010680 0.623000 102 69 70
0.035429 0.010629 0.620000 107 68 64
0.036255 0.010526 0.614000 105 66 62
0.037364 0.010509 0.613000 114 72 60
0.038280 0.010440 0.609000 124 82 70
0.039310 0.010406 0.607000 127 86 65
0.040267 0.010354 0.604000 128 87 66
0.041211 0.010303 0.601000 130 86 66
0.042145 0.010251 0.598000 124 80 60
0.042632 0.010097 0.589000 122 76 56
0.043531 0.010046 0.586000 121 75 55
0.044419 0.009994 0.583000 123 76 54
0.045451 0.009977 0.582000 124 77 55
0.046400 0.009943 0.580000 127 80 56
0.047259 0.009891 0.577000 127 80 56
0.048107 0.009840 0.574000 129 83 56
0.049029 0.009806 0.572000 130 84 57
0.050030 0.009789 0.571000 96 38 22
0.051029 0.009771 0.570000 80 22 6
0.052023 0.009754 0.569000 84 19 10
0.053013 0.009737 0.568000 84 19 10
0.053905 0.009703 0.566000 83 18 9
0.055080 0.009720 0.567000 83 18 9
0.056061 0.009703 0.566000 83 18 9
0.056836 0.009651 0.563000 83 18 9
0.058114 0.009686 0.565000 81 16 7
0.059086 0.009669 0.564000 81 16 7
0.061227 0.009840 0.574000 83 18 9
0.062320 0.009840 0.574000 81 16 7
0.063413 0.009840 0.574000 81 16 7
0.064507 0.009840 0.574000 81 16 7
0.065600 0.009840 0.574000 81 16 7
0.066693 0.009840 0.574000 81 16 7
0.067787 0.009840 0.574000 81 16 7
0.068880 0.009840 0.574000 81 16 7
0.069973 0.009840 0.574000 81 16 7
0.069581 0.009634 0.562000 81 16 7
0.072160 0.009840 0.574000 83 20 8
0.073253 0.009840 0.574000 85 22 10
0.074347 0.009840 0.574000 88 40 5
0.075440 0.009840 0.574000 119 71 36
0.076533 0.009840 0.574000 114 82 21
0.077627 0.009840 0.574000 116 84 23
0.078857 0.009857 0.575000 107 82 33
0.079952 0.009857 0.575000 95 70 21
0.081048 0.009857 0.575000 60 36 9
0.082143 0.009857 0.575000 82 58 31
0.083238 0.009857 0.575000 91 73 41
0.083307 0.009737 0.568000 94 76 44
0.084537 0.009754 0.569000 91 70 39
0.085621 0.009754 0.569000 77 56 25
0.086705 0.009754 0.569000 78 54 29
0.088869 0.009874 0.576000 84 60 35
0.089029 0.009771 0.570000 94 71 39
0.090114 0.009771 0.570000 99 76 44
0.092320 0.009891 0.577000 82 56 27
0.093419 0.009891 0.577000 76 50 21
0.094682 0.009909 0.578000 76 44 20
0.095783 0.009909 0.578000 76 44 20
0.096884 0.009909 0.578000 106 76 42
0.096968 0.009806 0.572000 82 52 18
0.098057 0.009806 0.572000 78 44 11
0.099320 0.009823 0.573000 99 65 32
0.100411 0.009823 0.573000 104 75 24
0.101503 0.009823 0.573000 111 82 31
0.102773 0.009840 0.574000 110 80 21
0.103867 0.009840 0.574000 108 78 19
0.105143 0.009857 0.575000 100 63 20
0.106238 0.009857 0.575000 61 24 0
0.107333 0.009857 0.575000 64 18 2
0.108429 0.009857 0.575000 64 18 2
0.109714 0.009874 0.576000 68 16 5
0.110811 0.009874 0.576000 68 16 5
0.111909 0.009874 0.576000 68 14 4
0.113202 0.009891 0.577000 69 15 5
0.114301 0.009891 0.577000 68 14 4
0.116600 0.009994 0.583000 69 15 5
0.116701 0.009909 0.578000 71 14 5
0.119229 0.010029 0.585000 71 14 5
0.120549 0.010046 0.586000 69 15 5
0.121872 0.010063 0.587000 69 15 5
0.123200 0.010080 0.588000 69 15 7
0.124531 0.010097 0.589000 69 15 7
0.125867 0.010114 0.590000 68 16 7
0.127206 0.010131 0.591000 68 16 7
0.128549 0.010149 0.592000 68 16 7
0.129895 0.010166 0.593000 67 15 6
0.131025 0.010166 0.593000 67 15 6
0.132377 0.010183 0.594000 67 15 6
0.133509 0.010183 0.594000 65 16 6
0.134640 0.010183 0.594000 65 16 6
0.135771 0.010183 0.594000 64 17 6
0.136903 0.010183 0.594000 64 17 6
0.138267 0.010200 0.595000 62 15 4
0.139400 0.010200 0.595000 64 17 6
0.140533 0.010200 0.595000 64 17 6
0.141667 0.010200 0.595000 64 17 6
0.142800 0.010200 0.595000 64 17 6
0.143933 0.010200 0.595000 64 17 6
0.145310 0.010217 0.596000 64 17 6
0.146446 0.010217 0.596000 64 17 6
0.147581 0.010217 0.596000 64 17 6
0.148716 0.010217 0.596000 65 18 7
0.150103 0.010234 0.597000 65 18 7
0.151240 0.010234 0.597000 65 18 7
0.152377 0.010234 0.597000 65 18 7
0.150943 0.010063 0.587000 65 18 7
0.154910 0.010251 0.598000 66 19 8
0.156050 0.010251 0.598000 65 18 7
0.157189 0.010251 0.598000 65 18 7
0.158592 0.010269 0.599000 66 19 8
0.160000 0.010286 0.600000 66 19 8
0.161143 0.010286 0.600000 67 20 9
0.162556 0.010303 0.601000 67 18 8
0.163701 0.010303 0.601000 67 18 8
0.164846 0.010303 0.601000 70 18 9
0.166267 0.010320 0.602000 70 18 9
0.167691 0.010337 0.603000 70 18 9
0.168840 0.010337 0.603000 71 19 10
0.166888 0.010149 0.592000 71 17 9
0.168299 0.010166 0.593000 72 18 10
0.172857 0.010371 0.605000 72 18 10
0.174297 0.010389 0.606000 72 18 10
0.175451 0.010389 0.606000 72 18 10
0.176897 0.010406 0.607000 72 18 10
0.178053 0.010406 0.607000 72 18 10
0.179210 0.010406 0.607000 72 18 10
0.180663 0.010423 0.608000 72 18 10
0.181821 0.010423 0.608000 72 18 10
0.179368 0.010217 0.596000 73 19 9
0.181411 0.010269 0.599000 73 19 9
0.182552 0.010269 0.599000 73 19 9
0.183693 0.010269 0.599000 75 21 11
0.185143 0.010286 0.600000 73 19 9
0.186596 0.010303 0.601000 73 19 9
0.187741 0.010303 0.601000 75 21 11
0.189200 0.010320 0.602000 75 21 11
0.190347 0.010320 0.602000 75 21 11
0.191811 0.010337 0.603000 73 19 9
0.193280 0.010354 0.604000 75 21 11
0.194430 0.010354 0.604000 75 21 11
0.195905 0.010371 0.605000 74 22 11
0.197057 0.010371 0.605000 74 22 11
0.198537 0.010389 0.606000 74 22 13
0.199691 0.010389 0.606000 74 22 13
0.201177 0.010406 0.607000 72 25 14
0.202333 0.010406 0.607000 75 28 17
0.203825 0.010423 0.608000 71 30 20
0.034358 0.011848 0.622000 96 70 68
0.035371 0.011790 0.619000 104 67 62
0.036255 0.011695 0.614000 103 66 61
0.037303 0.011657 0.612000 110 69 59
0.038280 0.011600 0.609000 121 80 70
0.039310 0.011562 0.607000 127 86 65
0.040267 0.011505 0.604000 126 85 64
0.041280 0.011467 0.602000 128 84 64
0.042286 0.011429 0.600000 124 80 60
0.042705 0.011238 0.590000 122 76 56
0.043903 0.011257 0.591000 121 75 55
0.044876 0.011219 0.589000 122 75 53
0.045608 0.011124 0.584000 125 78 56
0.046480 0.011067 0.581000 130 83 59
0.047341 0.011010 0.578000 127 80 56
0.048358 0.010990 0.577000 126 80 53
0.049114 0.010914 0.573000 127 81 54
0.050030 0.010876 0.571000 98 40 24
0.051118 0.010876 0.571000 80 22 6
0.052023 0.010838 0.569000 84 19 10
0.053013 0.010819 0.568000 84 19 10
0.054000 0.010800 0.567000 85 17 9
0.055177 0.010819 0.568000 85 17 9
0.055962 0.010762 0.565000 83 18 9
0.056937 0.010743 0.564000 83 18 9
0.058217 0.010781 0.566000 81 16 7
0.058981 0.010724 0.563000 81 16 7
0.061333 0.010952 0.575000 81 16 7
0.062429 0.010952 0.575000 81 16 7
0.063524 0.010952 0.575000 81 16 7
0.064619 0.010952 0.575000 81 16 7
0.065714 0.010952 0.575000 81 16 7
0.066810 0.010952 0.575000 81 16 7
0.067905 0.010952 0.575000 81 16 7
0.069000 0.010952 0.575000 81 16 7
0.070095 0.010952 0.575000 81 16 7
0.069705 0.010724 0.563000 81 16 7
0.070777 0.010724 0.563000 83 18 7
0.073381 0.010952 0.575000 86 21 10
0.074476 0.010952 0.575000 85 35 1
0.075571 0.010952 0.575000 119 69 35
0.076667 0.010952 0.575000 114 82 21
0.077762 0.010952 0.575000 116 84 23
0.078857 0.010952 0.575000 111 84 33
0.079952 0.010952 0.575000 96 69 18
0.081048 0.010952 0.575000 77 51 20
0.082143 0.010952 0.575000 84 58 27
0.083238 0.010952 0.575000 85 62 32
0.084480 0.010971 0.576000 88 65 35
0.084537 0.010838 0.569000 92 69 37
0.086674 0.010971 0.576000 78 55 23
0.087771 0.010971 0.576000 76 49 23
0.089023 0.010990 0.577000 87 60 34
0.090122 0.010990 0.577000 97 69 39
0.091221 0.010990 0.577000 100 72 42
0.092320 0.010990 0.577000 77 49 21
0.093419 0.010990 0.577000 77 49 21
0.094682 0.011010 0.578000 81 48 21
0.095783 0.011010 0.578000 74 41 14
0.096884 0.011010 0.578000 104 72 38
0.096968 0.010895 0.572000 93 61 27
0.098229 0.010914 0.573000 80 48 14
0.100360 0.011029 0.579000 89 57 23
0.100587 0.010933 0.574000 98 64 15
0.101680 0.010933 0.574000 112 78 29
0.102773 0.010933 0.574000 112 79 21
0.104048 0.010952 0.575000 110 77 19
0.105143 0.010952 0.575000 105 68 23
0.106238 0.010952 0.575000 60 23 0
0.107520 0.010971 0.576000 64 18 0
0.108617 0.010971 0.576000 64 18 0
0.109714 0.010971 0.576000 68 16 5
0.111004 0.010990 0.577000 68 16 5
0.112103 0.010990 0.577000 68 14 6
0.113398 0.011010 0.578000 68 14 6
0.114499 0.011010 0.578000 68 14 6
0.116800 0.011124 0.584000 69 15 7
0.116903 0.011029 0.579000 69 15 7
0.118006 0.011029 0.579000 69 15 7
0.120754 0.011181 0.587000 68 14 6
0.122080 0.011200 0.588000 68 14 6
0.123410 0.011219 0.589000 67 15 6
0.124743 0.011238 0.590000 67 15 6
0.126080 0.011257 0.591000 65 16 6
0.127206 0.011257 0.591000 66 17 7
0.128549 0.011276 0.592000 65 16 6
0.129895 0.011295 0.593000 65 16 6
0.131025 0.011295 0.593000 65 16 6
0.132377 0.011314 0.594000 65 16 6
0.133509 0.011314 0.594000 65 16 6
0.134640 0.011314 0.594000 65 16 6
0.135771 0.011314 0.594000 64 17 6
0.136903 0.011314 0.594000 62 15 4
0.138267 0.011333 0.595000 62 17 6
0.139400 0.011333 0.595000 62 17 6
0.140533 0.011333 0.595000 62 17 6
0.141667 0.011333 0.595000 62 17 6
0.143040 0.011352 0.596000 62 16 8
0.144175 0.011352 0.596000 62 16 8
0.145554 0.011371 0.597000 62 16 8
0.146691 0.011371 0.597000 62 16 8
0.147829 0.011371 0.597000 63 17 9
0.148966 0.011371 0.597000 63 17 9
0.150354 0.011390 0.598000 65 18 7
0.148707 0.011181 0.587000 65 18 7
0.149825 0.011181 0.587000 65 18 7
0.151200 0.011200 0.588000 66 19 8
0.152320 0.011200 0.588000 66 19 8
0.153701 0.011219 0.589000 66 19 8
0.157714 0.011429 0.600000 66 19 8
0.159122 0.011448 0.601000 67 20 9
0.160533 0.011467 0.602000 68 19 9
0.161680 0.011467 0.602000 68 19 9
0.163097 0.011486 0.603000 70 18 9
0.164246 0.011486 0.603000 70 18 9
0.165394 0.011486 0.603000 71 19 10
0.166819 0.011505 0.604000 71 19 10
0.168248 0.011524 0.605000 71 19 10
0.169400 0.011524 0.605000 71 19 10
0.170834 0.011543 0.606000 72 18 10
0.172272 0.011562 0.607000 72 18 10
0.173429 0.011562 0.607000 72 18 10
0.174585 0.011562 0.607000 72 18 10
0.175741 0.011562 0.607000 72 18 10
0.177189 0.011581 0.608000 72 18 10
0.178347 0.011581 0.608000 72 18 10
0.179505 0.011581 0.608000 72 18 10
0.180960 0.011600 0.609000 72 18 10
0.182120 0.011600 0.609000 72 18 10
0.179669 0.011371 0.597000 73 19 9
0.181714 0.011429 0.600000 73 19 9
0.182857 0.011429 0.600000 73 19 9
0.184000 0.011429 0.600000 75 21 11
0.185451 0.011448 0.601000 73 19 9
0.186907 0.011467 0.602000 73 19 9
0.188053 0.011467 0.602000 75 21 11
0.189514 0.011486 0.603000 75 21 11
0.190979 0.011505 0.604000 72 20 9
0.192448 0.011524 0.605000 72 20 9
0.193600 0.011524 0.605000 72 23 13
0.194752 0.011524 0.605000 73 24 14
0.196229 0.011543 0.606000 71 26 15
0.197709 0.011562 0.607000 74 29 18
0.198865 0.011562 0.607000 74 33 23
0.200021 0.011562 0.607000 78 37 27
0.034303 0.013011 0.621000 89 70 66
0.035371 0.012970 0.619000 102 67 64
0.036255 0.012865 0.614000 101 66 63
0.037303 0.012823 0.612000 107 66 58
0.038280 0.012760 0.609000 119 78 70
0.039375 0.012739 0.608000 126 87 65
0.040333 0.012676 0.605000 124 85 63
0.041349 0.012634 0.603000 126 82 62
0.042286 0.012571 0.600000 124 80 60
0.042560 0.012320 0.588000 121 75 55
0.043977 0.012404 0.592000 121 75 55
0.044952 0.012362 0.590000 120 73 51
0.045608 0.012236 0.584000 125 78 56
0.046560 0.012194 0.582000 131 84 60
0.047341 0.012110 0.578000 127 80 56
0.048526 0.012131 0.579000 124 78 51
0.049457 0.012090 0.577000 124 78 51
0.050381 0.012048 0.575000 98 40 24
0.051297 0.012006 0.573000 80 22 6
0.052023 0.011922 0.569000 84 19 10
0.053013 0.011901 0.568000 84 19 10
0.054000 0.011880 0.567000 85 17 9
0.054983 0.011859 0.566000 85 17 9
0.056061 0.011859 0.566000 83 18 9
0.057038 0.011838 0.565000 83 18 9
0.058114 0.011838 0.565000 81 16 7
0.059086 0.011817 0.564000 81 16 7
0.061440 0.012069 0.576000 81 16 7
0.062537 0.012069 0.576000 83 18 9
0.063634 0.012069 0.576000 81 16 7
0.064731 0.012069 0.576000 81 16 7
0.065829 0.012069 0.576000 81 16 7
0.066926 0.012069 0.576000 81 16 7
0.068023 0.012069 0.576000 81 16 7
0.069120 0.012069 0.576000 81 16 7
0.070217 0.012069 0.576000 81 16 7
0.069829 0.011817 0.564000 83 18 9
0.070903 0.011817 0.564000 83 18 7
0.073509 0.012069 0.576000 86 21 10
0.074606 0.012069 0.576000 83 33 1
0.075703 0.012069 0.576000 119 69 37
0.076800 0.012069 0.576000 114 81 23
0.077897 0.012069 0.576000 117 84 26
0.078994 0.012069 0.576000 113 84 31
0.080091 0.012069 0.576000 98 69 16
0.081189 0.012069 0.576000 78 51 18
0.082286 0.012069 0.576000 84 57 24
0.083383 0.012069 0.576000 87 59 29
0.084627 0.012090 0.577000 91 63 33
0.084686 0.011943 0.570000 95 70 36
0.086825 0.012090 0.577000 76 51 17
0.087924 0.012090 0.577000 76 48 20
0.089177 0.012110 0.578000 91 63 35
0.090278 0.012110 0.578000 98 71 38
0.091379 0.012110 0.578000 96 69 36
0.092480 0.012110 0.578000 83 52 23
0.093581 0.012110 0.578000 84 53 24
0.094682 0.012110 0.578000 93 61 29
0.095949 0.012131 0.579000 85 53 21
0.097051 0.012131 0.579000 94 62 26
0.097137 0.012006 0.573000 93 61 25
0.098400 0.012027 0.574000 83 49 16
0.100533 0.012152 0.580000 86 52 19
0.100762 0.012048 0.575000 97 62 16
0.101857 0.012048 0.575000 110 75 29
0.102952 0.012048 0.575000 111 78 20
0.104229 0.012069 0.576000 109 76 18
0.105326 0.012069 0.576000 106 71 25
0.106423 0.012069 0.576000 62 27 0
0.107707 0.012090 0.577000 64 18 0
0.108806 0.012090 0.577000 64 18 0
0.109905 0.012090 0.577000 68 16 5
0.111196 0.012110 0.578000 68 16 5
0.112297 0.012110 0.578000 68 14 6
0.113594 0.012131 0.579000 68 14 6
0.114697 0.012131 0.579000 68 14 6
0.115800 0.012131 0.579000 68 14 6
0.118316 0.012278 0.586000 68 16 7
0.119432 0.012278 0.586000 67 15 6
0.119314 0.012152 0.580000 67 15 6
0.122080 0.012320 0.588000 67 15 6
0.123410 0.012341 0.589000 65 16 6
0.124743 0.012362 0.590000 65 16 6
0.126080 0.012383 0.591000 64 17 6
0.127206 0.012383 0.591000 64 17 6
0.128549 0.012404 0.592000 64 17 6
0.129895 0.012425 0.593000 64 17 6
0.131025 0.012425 0.593000 64 17 6
0.132377 0.012446 0.594000 64 17 6
0.133509 0.012446 0.594000 64 17 6
0.134640 0.012446 0.594000 64 17 6
0.135771 0.012446 0.594000 64 17 6
0.136903 0.012446 0.594000 62 15 4
0.138267 0.012467 0.595000 62 17 6
0.139400 0.012467 0.595000 62 17 6
0.140533 0.012467 0.595000 62 17 6
0.141667 0.012467 0.595000 62 17 6
0.143040 0.012488 0.596000 62 17 6
0.144175 0.012488 0.596000 63 18 7
0.145554 0.012509 0.597000 65 18 7
0.146691 0.012509 0.597000 65 18 7
0.147829 0.012509 0.597000 65 18 7
0.149215 0.012530 0.598000 66 19 8
0.147840 0.012320 0.588000 67 18 8
0.148960 0.012320 0.588000 67 18 8
0.150080 0.012320 0.588000 67 18 8
0.151457 0.012341 0.589000 67 18 8
0.155688 0.012592 0.601000 68 19 9
0.156832 0.012592 0.601000 68 19 9
0.157977 0.012592 0.601000 68 19 9
0.159387 0.012613 0.602000 69 20 10
0.160800 0.012634 0.603000 70 18 9
0.162217 0.012655 0.604000 70 18 9
0.163638 0.012676 0.605000 70 18 9
0.164790 0.012676 0.605000 70 18 9
0.165943 0.012676 0.605000 71 19 10
0.167371 0.012697 0.606000 71 19 10
0.168804 0.012718 0.607000 71 19 10
0.169960 0.012718 0.607000 71 19 10
0.171398 0.012739 0.608000 72 18 10
0.172556 0.012739 0.608000 73 19 11
0.173714 0.012739 0.608000 72 18 10
0.174872 0.012739 0.608000 72 18 10
0.176030 0.012739 0.608000 72 18 10
0.177480 0.012760 0.609000 72 18 10
0.178640 0.012760 0.609000 72 18 10
0.179800 0.012760 0.609000 72 18 10
0.181257 0.012781 0.610000 72 18 10
0.179130 0.012550 0.599000 72 18 10
0.180571 0.012571 0.600000 73 19 11
0.182017 0.012592 0.601000 73 19 11
0.183162 0.012592 0.601000 72 20 11
0.184613 0.012613 0.602000 72 20 11
0.186069 0.012634 0.603000 72 20 11
0.187217 0.012634 0.603000 72 20 11
0.188366 0.012634 0.603000 70 21 11
0.189829 0.012655 0.604000 72 23 13
0.191295 0.012676 0.605000 72 25 14
0.192766 0.012697 0.606000 73 26 15
0.193920 0.012697 0.606000 71 31 18
0.035200 0.014080 0.616000 99 67 63
0.036255 0.014034 0.614000 98 66 62
0.037303 0.013989 0.612000 103 65 58
0.038280 0.013920 0.609000 109 71 64
0.039375 0.013897 0.608000 125 86 66
0.040333 0.013829 0.605000 123 84 64
0.041349 0.013783 0.603000 126 83 60
0.042356 0.013737 0.601000 124 81 58
0.043211 0.013646 0.597000 121 75 55
0.044051 0.013554 0.593000 122 76 56
0.044952 0.013486 0.590000 121 76 53
0.045920 0.013440 0.588000 123 78 55
0.046880 0.013394 0.586000 130 83 59
0.047423 0.013234 0.579000 126 79 55
0.048442 0.013211 0.578000 124 74 51
0.049457 0.013189 0.577000 122 72 49
0.050118 0.013074 0.572000 97 37 22
0.051118 0.013051 0.571000 82 22 7
0.052023 0.013006 0.569000 84 19 10
0.053013 0.012983 0.568000 83 18 9
0.054000 0.012960 0.567000 85 17 9
0.055080 0.012960 0.567000 85 17 9
0.056160 0.012960 0.567000 85 17 9
0.057139 0.012937 0.566000 85 17 9
0.058114 0.012914 0.565000 83 18 9
0.059190 0.012914 0.565000 83 18 9
0.060160 0.012891 0.564000 83 18 9
0.062537 0.013166 0.576000 83 18 9
0.063634 0.013166 0.576000 81 16 7
0.064731 0.013166 0.576000 81 16 7
0.065829 0.013166 0.576000 81 16 7
0.066926 0.013166 0.576000 81 16 7
0.068023 0.013166 0.576000 81 16 7
0.069120 0.013166 0.576000 81 16 7
0.069120 0.012960 0.567000 83 18 9
0.069829 0.012891 0.564000 83 18 9
0.070903 0.012891 0.564000 84 19 8
0.073509 0.013166 0.576000 86 21 10
0.074606 0.013166 0.576000 80 27 0
0.075703 0.013166 0.576000 116 63 32
0.076800 0.013166 0.576000 114 81 23
0.077897 0.013166 0.576000 117 84 26
0.078994 0.013166 0.576000 114 85 30
0.080230 0.013189 0.577000 100 71 16
0.081330 0.013189 0.577000 77 45 9
0.082429 0.013189 0.577000 87 55 19
0.083528 0.013189 0.577000 85 58 25
0.084773 0.013211 0.578000 88 61 28
0.084834 0.013051 0.571000 99 74 38
0.086975 0.013211 0.578000 76 51 15
0.088076 0.013211 0.578000 76 45 18
0.089331 0.013234 0.579000 90 59 32
0.089341 0.013074 0.572000 98 71 38
0.091537 0.013234 0.579000 96 69 36
0.092640 0.013234 0.579000 86 54 22
0.092771 0.013097 0.573000 87 55 23
0.093863 0.013097 0.573000 96 64 28
0.096114 0.013257 0.580000 96 64 28
0.096213 0.013120 0.574000 90 57 19
0.097307 0.013120 0.574000 90 57 19
0.098571 0.013143 0.575000 85 52 14
0.099667 0.013143 0.575000 83 50 12
0.100937 0.013166 0.576000 96 61 15
0.102034 0.013166 0.576000 109 74 28
0.103131 0.013166 0.576000 111 79 18
0.103505 0.013074 0.572000 109 77 16
0.105509 0.013189 0.577000 106 72 23
0.106608 0.013189 0.577000 70 36 0
0.107893 0.013211 0.578000 64 18 0
0.108994 0.013211 0.578000 64 18 0
0.110095 0.013211 0.578000 68 16 5
0.111389 0.013234 0.579000 68 16 5
0.112491 0.013234 0.579000 67 15 6
0.113790 0.013257 0.580000 67 15 6
0.114895 0.013257 0.580000 67 15 6
0.116000 0.013257 0.580000 67 15 6
0.118518 0.013417 0.587000 65 16 6
0.119636 0.013417 0.587000 63 14 4
0.119520 0.013280 0.581000 65 16 6
0.122288 0.013463 0.589000 65 16 6
0.123410 0.013463 0.589000 64 17 6
0.124743 0.013486 0.590000 64 17 6
0.126080 0.013509 0.591000 64 17 6
0.127206 0.013509 0.591000 64 17 6
0.128549 0.013531 0.592000 64 17 6
0.129895 0.013554 0.593000 64 17 6
0.131025 0.013554 0.593000 64 17 6
0.132377 0.013577 0.594000 64 17 6
0.133509 0.013577 0.594000 64 17 6
0.134640 0.013577 0.594000 64 17 6
0.135771 0.013577 0.594000 64 17 6
0.136903 0.013577 0.594000 64 17 6
0.138267 0.013600 0.595000 62 17 6
0.139400 0.013600 0.595000 62 17 6
0.140533 0.013600 0.595000 63 18 7
0.141905 0.013623 0.596000 63 18 7
0.143280 0.013646 0.597000 65 18 7
