ply
format ascii 1.0
element vertex 1322
property float x
property float y
property float z
property uchar red
property uchar green
property uchar blue
end_header
0.113394 0.005623 0.492000 75 21 11
0.114564 0.005634 0.493000 76 22 12
0.115503 0.005634 0.493000 76 22 12
0.116678 0.005646 0.494000 76 22 12
0.117619 0.005646 0.494000 76 22 12
0.118800 0.005657 0.495000 76 22 12
0.119985 0.005669 0.496000 76 22 12
0.121173 0.005680 0.497000 76 22 12
0.122120 0.005680 0.497000 76 22 12
0.123314 0.005691 0.498000 76 22 12
0.124512 0.005703 0.499000 76 22 12
0.125714 0.005714 0.500000 74 22 11
0.130213 0.005874 0.514000 74 22 11
0.129916 0.005817 0.509000 74 22 13
0.131400 0.005840 0.511000 74 22 13
0.132632 0.005851 0.512000 74 22 13
0.133869 0.005863 0.513000 75 23 14
0.135109 0.005874 0.514000 74 22 13
0.136352 0.005886 0.515000 74 22 13
0.137600 0.005897 0.516000 73 24 14
0.138851 0.005909 0.517000 74 25 15
0.140107 0.005920 0.518000 76 29 18
0.143545 0.006023 0.527000 81 34 23
0.142903 0.005954 0.521000 75 33 21
0.144448 0.005977 0.523000 78 36 24
0.144053 0.005920 0.518000 88 52 40
0.145320 0.005931 0.519000 95 59 47
0.146590 0.005943 0.520000 90 59 46
0.147865 0.005954 0.521000 90 59 46
0.149429 0.005977 0.523000 100 75 57
0.152726 0.006069 0.531000 106 81 63
0.154027 0.006080 0.532000 109 86 65
0.155623 0.006103 0.534000 105 82 61
0.156933 0.006114 0.535000 105 85 65
0.158248 0.006126 0.536000 111 91 71
0.159566 0.006137 0.537000 111 90 73
0.160888 0.006149 0.538000 86 65 48
0.161912 0.006149 0.538000 104 79 61
0.163240 0.006160 0.539000 104 79 61
0.164571 0.006171 0.540000 103 73 57
0.165907 0.006183 0.541000 95 65 49
0.167246 0.006194 0.542000 90 52 41
0.168589 0.006206 0.543000 86 48 37
0.167749 0.006137 0.537000 85 44 34
0.169086 0.006149 0.538000 83 42 32
0.170427 0.006160 0.539000 84 41 32
0.171771 0.006171 0.540000 89 46 37
0.173120 0.006183 0.541000 99 58 37
0.174472 0.006194 0.542000 102 61 40
0.176152 0.006217 0.544000 104 61 36
0.177514 0.006229 0.545000 105 62 37
0.178880 0.006240 0.546000 107 65 37
0.180250 0.006251 0.547000 106 64 36
0.181623 0.006263 0.548000 110 66 38
0.183333 0.006286 0.550000 110 66 38
0.184716 0.006297 0.551000 111 67 37
0.187789 0.006366 0.557000 111 67 37
0.189528 0.006389 0.559000 114 70 40
0.191274 0.006411 0.561000 112 68 38
0.192686 0.006423 0.562000 112 68 38
0.194101 0.006434 0.563000 112 68 38
0.195867 0.006457 0.565000 114 70 40
0.197640 0.006480 0.567000 114 70 40
0.199070 0.006491 0.568000 115 71 43
0.200857 0.006514 0.570000 112 68 40
0.202297 0.006526 0.571000 105 64 43
0.204097 0.006549 0.573000 100 59 38
0.205547 0.006560 0.574000 98 58 43
0.207000 0.006571 0.575000 98 58 43
0.208457 0.006583 0.576000 100 62 55
0.209918 0.006594 0.577000 103 65 58
0.211383 0.006606 0.578000 103 72 72
0.028724 0.006933 0.520000 74 51 46
0.029714 0.006933 0.520000 98 36 35
0.030705 0.006933 0.520000 97 35 34
0.031634 0.006920 0.519000 101 32 29
0.032623 0.006920 0.519000 100 31 28
0.033158 0.006827 0.512000 102 30 28
0.034200 0.006840 0.513000 99 27 25
0.035109 0.006827 0.512000 99 27 25
0.036084 0.006827 0.512000 99 27 25
0.037059 0.006827 0.512000 98 26 24
0.037960 0.006813 0.511000 98 26 24
0.038857 0.006800 0.510000 97 28 25
0.039750 0.006787 0.509000 97 28 25
0.040640 0.006773 0.508000 97 28 25
0.041608 0.006773 0.508000 97 28 25
0.042575 0.006773 0.508000 95 29 25
0.043457 0.006760 0.507000 95 29 25
0.044423 0.006760 0.507000 97 31 27
0.045299 0.006747 0.506000 95 29 25
0.046263 0.006747 0.506000 94 33 25
0.047133 0.006733 0.505000 99 38 30
0.048000 0.006720 0.504000 101 45 29
0.048863 0.006707 0.503000 105 49 33
0.049821 0.006707 0.503000 105 53 31
0.050678 0.006693 0.502000 105 53 31
0.051634 0.006693 0.502000 99 47 27
0.052486 0.006680 0.501000 89 37 17
0.053333 0.006667 0.500000 86 30 18
0.054177 0.006653 0.499000 85 29 17
0.055017 0.006640 0.498000 83 29 21
0.055853 0.006627 0.497000 82 28 20
0.056686 0.006613 0.496000 82 27 22
0.057514 0.006600 0.495000 82 27 22
0.058339 0.006587 0.494000 81 28 22
0.059160 0.006573 0.493000 79 26 20
0.060099 0.006573 0.493000 79 26 20
0.060914 0.006560 0.492000 79 26 20
0.061726 0.006547 0.491000 78 25 19
0.062661 0.006547 0.491000 78 25 19
0.063467 0.006533 0.490000 78 25 19
0.064269 0.006520 0.489000 78 25 19
0.065067 0.006507 0.488000 78 26 17
0.065861 0.006493 0.487000 78 26 17
0.066651 0.006480 0.486000 77 25 16
0.067577 0.006480 0.486000 76 24 15
0.068362 0.006467 0.485000 76 24 15
0.068714 0.006413 0.481000 77 25 16
0.069486 0.006400 0.480000 78 24 16
0.070400 0.006400 0.480000 72 18 10
0.071314 0.006400 0.480000 68 11 4
0.072078 0.006387 0.479000 66 9 2
0.073448 0.006427 0.482000 69 10 3
0.074366 0.006427 0.482000 69 10 3
0.075284 0.006427 0.482000 68 9 2
0.075728 0.006387 0.479000 69 10 3
0.076480 0.006373 0.478000 69 10 3
0.077390 0.006373 0.478000 69 10 3
0.078301 0.006373 0.478000 69 10 3
0.079046 0.006360 0.477000 69 10 3
0.079954 0.006360 0.477000 70 11 4
0.081032 0.006373 0.478000 70 11 4
0.081943 0.006373 0.478000 73 14 5
0.083373 0.006413 0.481000 74 15 6
0.084465 0.006427 0.482000 75 16 7
0.085383 0.006427 0.482000 77 18 9
0.086301 0.006427 0.482000 77 21 9
0.087400 0.006440 0.483000 78 22 10
0.088320 0.006440 0.483000 78 22 10
0.089240 0.006440 0.483000 79 23 11
0.090160 0.006440 0.483000 77 24 11
0.091080 0.006440 0.483000 78 25 12
0.092000 0.006440 0.483000 78 25 12
0.092920 0.006440 0.483000 78 25 12
0.093451 0.006413 0.481000 78 25 12
0.094760 0.006440 0.483000 78 25 12
0.095878 0.006453 0.484000 77 26 12
0.096600 0.006440 0.483000 76 25 11
0.097722 0.006453 0.484000 76 23 10
0.098644 0.006453 0.484000 76 23 10
0.099771 0.006467 0.485000 76 23 10
0.100695 0.006467 0.485000 76 23 10
0.101619 0.006467 0.485000 78 22 10
0.102754 0.006480 0.486000 78 22 10
0.103893 0.006493 0.487000 77 21 9
0.104821 0.006493 0.487000 77 21 9
0.105966 0.006507 0.488000 75 22 9
0.107114 0.006520 0.489000 75 22 9
0.108046 0.006520 0.489000 75 22 9
0.109200 0.006533 0.490000 75 22 9
0.110358 0.006547 0.491000 76 23 10
0.111293 0.006547 0.491000 76 23 10
0.112457 0.006560 0.492000 76 22 12
0.113625 0.006573 0.493000 75 21 11
0.114564 0.006573 0.493000 76 22 12
0.115737 0.006587 0.494000 76 22 12
0.116678 0.006587 0.494000 76 22 12
0.117857 0.006600 0.495000 76 22 12
0.119040 0.006613 0.496000 76 22 12
0.120227 0.006627 0.497000 76 22 12
0.121173 0.006627 0.497000 76 22 12
0.122366 0.006640 0.498000 76 22 12
0.123562 0.006653 0.499000 76 22 14
0.124762 0.006667 0.500000 76 22 14
0.128983 0.006840 0.513000 75 23 14
0.128947 0.006787 0.509000 74 22 13
0.130171 0.006800 0.510000 73 24 14
0.131400 0.006813 0.511000 73 24 14
0.132891 0.006840 0.513000 73 24 14
0.134130 0.006853 0.514000 74 25 15
0.135371 0.006867 0.515000 73 24 14
0.136617 0.006880 0.516000 73 24 14
0.137867 0.006893 0.517000 74 26 18
0.139120 0.006907 0.518000 79 31 23
0.140377 0.006920 0.519000 81 41 28
0.140276 0.006867 0.515000 91 51 38
0.141531 0.006880 0.516000 75 35 22
0.143067 0.006907 0.518000 76 36 23
0.144331 0.006920 0.519000 93 59 47
0.145600 0.006933 0.520000 102 68 56
0.146872 0.006947 0.521000 96 65 52
0.148149 0.006960 0.522000 96 65 52
0.149429 0.006973 0.523000 109 86 65
0.150712 0.006987 0.524000 110 87 66
0.152000 0.007000 0.525000 111 91 69
0.155623 0.007120 0.534000 108 88 66
0.156933 0.007133 0.535000 110 90 70
0.158248 0.007147 0.536000 112 92 72
0.159566 0.007160 0.537000 113 89 73
0.160888 0.007173 0.538000 87 63 47
0.162213 0.007187 0.539000 97 67 51
0.163543 0.007200 0.540000 97 67 51
0.164876 0.007213 0.541000 96 58 47
0.166213 0.007227 0.542000 88 50 39
0.167554 0.007240 0.543000 88 47 37
0.168589 0.007240 0.543000 84 43 33
0.167749 0.007160 0.537000 84 41 32
0.169086 0.007173 0.538000 84 41 32
0.170427 0.007187 0.539000 84 42 30
0.171771 0.007200 0.540000 92 50 38
0.173120 0.007213 0.541000 105 65 41
0.174794 0.007240 0.543000 105 65 41
0.176152 0.007253 0.544000 106 64 34
0.177514 0.007267 0.545000 107 65 35
0.178880 0.007280 0.546000 108 66 36
0.180250 0.007293 0.547000 107 65 35
0.181954 0.007320 0.549000 110 66 36
0.183333 0.007333 0.550000 111 67 37
0.186392 0.007413 0.556000 111 67 37
0.188126 0.007440 0.558000 112 68 38
0.189867 0.007467 0.560000 114 70 40
0.191615 0.007493 0.562000 111 67 37
0.193029 0.007507 0.563000 111 67 37
0.194446 0.007520 0.564000 112 68 38
0.196213 0.007547 0.566000 114 70 40
0.197640 0.007560 0.567000 114 70 40
0.199421 0.007587 0.569000 114 69 44
0.200857 0.007600 0.570000 111 66 41
0.202651 0.007627 0.572000 103 62 43
0.204453 0.007653 0.574000 100 59 40
0.205905 0.007667 0.575000 98 58 43
0.207000 0.007667 0.575000 99 59 44
0.208819 0.007693 0.577000 101 63 56
0.210282 0.007707 0.578000 104 66 59
0.211749 0.007720 0.579000 104 73 73
0.028724 0.007924 0.520000 76 53 48
0.029714 0.007924 0.520000 98 36 37
0.030705 0.007924 0.520000 98 36 37
0.031695 0.007924 0.520000 101 32 29
0.032623 0.007909 0.519000 100 31 28
0.033547 0.007893 0.518000 102 30 28
0.034200 0.007817 0.513000 101 29 27
0.035109 0.007802 0.512000 101 29 27
0.036084 0.007802 0.512000 99 27 25
0.037059 0.007802 0.512000 99 27 25
0.037960 0.007787 0.511000 99 27 25
0.038857 0.007771 0.510000 99 27 25
0.039750 0.007756 0.509000 99 27 25
0.040640 0.007741 0.508000 97 28 25
0.041608 0.007741 0.508000 99 30 27
0.042575 0.007741 0.508000 97 28 25
0.043457 0.007726 0.507000 99 30 27
0.044423 0.007726 0.507000 100 36 29
0.045299 0.007710 0.506000 100 36 29
0.046263 0.007710 0.506000 97 37 24
0.047133 0.007695 0.505000 105 45 32
0.048000 0.007680 0.504000 110 58 36
0.048863 0.007665 0.503000 111 59 37
0.049821 0.007665 0.503000 111 60 31
0.050678 0.007650 0.502000 111 60 31
0.051634 0.007650 0.502000 106 55 28
0.052590 0.007650 0.502000 97 46 19
0.053440 0.007634 0.501000 89 31 17
0.054286 0.007619 0.500000 88 30 16
0.055128 0.007604 0.499000 85 28 21
0.055966 0.007589 0.498000 85 28 21
0.056800 0.007573 0.497000 84 27 20
0.057630 0.007558 0.496000 84 27 20
0.058457 0.007543 0.495000 81 28 22
0.059280 0.007528 0.494000 79 26 20
0.060099 0.007512 0.493000 79 26 20
0.061038 0.007512 0.493000 78 25 19
0.061851 0.007497 0.492000 78 25 19
0.062661 0.007482 0.491000 78 25 19
0.063467 0.007467 0.490000 78 25 19
0.064269 0.007451 0.489000 78 25 19
0.065200 0.007451 0.489000 78 26 17
0.065996 0.007436 0.488000 78 26 17
0.066789 0.007421 0.487000 77 25 16
0.067160 0.007360 0.483000 76 24 15
0.067939 0.007345 0.482000 76 24 15
0.068857 0.007345 0.482000 77 25 16
0.069630 0.007330 0.481000 77 23 15
0.070547 0.007330 0.481000 72 18 10
0.071760 0.007360 0.483000 68 11 4
0.072680 0.007360 0.483000 66 9 2
0.073600 0.007360 0.483000 69 10 3
0.074520 0.007360 0.483000 69 10 3
0.075440 0.007360 0.483000 68 9 2
0.076202 0.007345 0.482000 68 9 2
0.076640 0.007299 0.479000 69 10 3
0.077390 0.007284 0.478000 69 10 3
0.078301 0.007284 0.478000 69 10 3
0.079211 0.007284 0.478000 69 10 3
0.080122 0.007284 0.478000 70 11 4
0.081032 0.007284 0.478000 73 14 7
0.081943 0.007284 0.478000 75 16 7
0.082853 0.007284 0.478000 76 17 8
0.084465 0.007345 0.482000 77 19 7
0.085383 0.007345 0.482000 77 19 7
0.086480 0.007360 0.483000 78 22 10
0.087038 0.007330 0.481000 78 22 10
0.088320 0.007360 0.483000 78 22 10
0.088870 0.007330 0.481000 79 23 11
0.089787 0.007330 0.481000 80 24 12
0.090703 0.007330 0.481000 80 24 12
0.091619 0.007330 0.481000 80 24 12
0.092535 0.007330 0.481000 79 23 11
0.093451 0.007330 0.481000 77 24 11
0.094368 0.007330 0.481000 77 24 11
0.095878 0.007375 0.484000 77 24 11
0.096600 0.007360 0.483000 76 23 10
0.097722 0.007375 0.484000 76 23 10
0.098848 0.007390 0.485000 76 23 10
0.099771 0.007390 0.485000 76 23 10
0.100695 0.007390 0.485000 76 23 10
0.101829 0.007406 0.486000 77 21 9
0.102754 0.007406 0.486000 77 21 9
0.103893 0.007421 0.487000 77 21 9
0.104821 0.007421 0.487000 77 21 9
0.105966 0.007436 0.488000 77 21 9
0.107114 0.007451 0.489000 77 21 9
0.108046 0.007451 0.489000 75 22 9
0.109200 0.007467 0.490000 75 22 9
0.110358 0.007482 0.491000 76 23 10
0.111293 0.007482 0.491000 76 23 10
0.112457 0.007497 0.492000 76 22 12
0.113625 0.007512 0.493000 76 22 12
0.114564 0.007512 0.493000 77 23 13
0.115737 0.007528 0.494000 76 22 12
0.116678 0.007528 0.494000 77 23 13
0.117857 0.007543 0.495000 76 22 12
0.119040 0.007558 0.496000 77 23 13
0.120227 0.007573 0.497000 76 22 12
0.121173 0.007573 0.497000 77 23 13
0.122366 0.007589 0.498000 76 22 12
0.123562 0.007604 0.499000 76 22 14
0.124762 0.007619 0.500000 76 22 14
0.128983 0.007817 0.513000 74 22 13
0.128947 0.007756 0.509000 75 23 14
0.130171 0.007771 0.510000 73 24 14
0.131657 0.007802 0.512000 73 24 14
0.132891 0.007817 0.513000 73 24 14
0.134130 0.007832 0.514000 74 25 15
0.135371 0.007848 0.515000 75 26 16
0.136617 0.007863 0.516000 75 26 16
0.137867 0.007878 0.517000 79 36 29
0.139389 0.007909 0.519000 88 45 38
0.140648 0.007924 0.520000 91 56 41
0.140549 0.007863 0.516000 95 60 45
0.143177 0.007954 0.522000 82 45 31
0.143067 0.007893 0.518000 72 35 21
0.144331 0.007909 0.519000 109 75 63
0.145600 0.007924 0.520000 108 74 62
0.146872 0.007939 0.521000 97 68 54
0.148149 0.007954 0.522000 97 68 54
0.149429 0.007970 0.523000 110 87 68
0.153013 0.008107 0.532000 113 90 71
0.154316 0.008122 0.533000 111 91 69
0.155914 0.008152 0.535000 112 92 70
0.157227 0.008168 0.536000 111 91 71
0.158543 0.008183 0.537000 112 92 72
0.159863 0.008198 0.538000 115 89 74
0.161187 0.008213 0.539000 86 60 45
0.162514 0.008229 0.540000 90 52 41
0.163846 0.008244 0.541000 92 54 43
0.164876 0.008244 0.541000 88 47 37
0.166213 0.008259 0.542000 85 44 34
0.167554 0.008274 0.543000 85 42 33
0.168899 0.008290 0.544000 84 41 32
0.170248 0.008305 0.545000 84 41 32
0.171600 0.008320 0.546000 84 41 32
0.170743 0.008229 0.540000 87 42 29
0.172090 0.008244 0.541000 102 57 44
0.173440 0.008259 0.542000 106 67 38
0.175116 0.008290 0.544000 106 67 38
0.176476 0.008305 0.545000 107 65 35
0.177840 0.008320 0.546000 108 66 36
0.179208 0.008335 0.547000 110 66 36
0.180579 0.008350 0.548000 110 66 36
0.182286 0.008381 0.550000 110 66 36
0.183667 0.008396 0.551000 111 67 37
0.186728 0.008488 0.557000 112 68 38
0.188463 0.008518 0.559000 112 68 38
0.190206 0.008549 0.561000 114 70 40
0.191956 0.008579 0.563000 111 67 37
0.193371 0.008594 0.564000 112 68 38
0.194790 0.008610 0.565000 112 68 38
0.196560 0.008640 0.567000 114 70 40
0.198337 0.008670 0.569000 114 70 40
0.199771 0.008686 0.570000 114 69 44
0.201210 0.008701 0.571000 109 64 39
0.203006 0.008731 0.573000 100 59 42
0.204453 0.008747 0.574000 99 58 41
0.205905 0.008762 0.575000 97 56 46
0.207360 0.008777 0.576000 99 58 48
0.208819 0.008792 0.577000 101 63 56
0.210282 0.008808 0.578000 104 66 59
0.212114 0.008838 0.580000 101 73 72
0.028779 0.008931 0.521000 78 55 50
0.029771 0.008931 0.521000 100 40 40
0.030764 0.008931 0.521000 97 37 37
0.031695 0.008914 0.520000 102 33 28
0.032623 0.008897 0.519000 101 32 27
0.033547 0.008880 0.518000 100 31 26
0.034200 0.008794 0.513000 99 30 25
0.035109 0.008777 0.512000 101 29 25
0.036084 0.008777 0.512000 101 29 25
0.037059 0.008777 0.512000 101 29 25
0.037960 0.008760 0.511000 101 29 25
0.038857 0.008743 0.510000 101 29 25
0.039750 0.008726 0.509000 101 29 25
0.040640 0.008709 0.508000 99 30 25
0.041608 0.008709 0.508000 100 31 26
0.042575 0.008709 0.508000 101 32 27
0.043457 0.008691 0.507000 101 32 27
0.044423 0.008691 0.507000 106 43 29
0.045299 0.008674 0.506000 106 43 29
0.046263 0.008674 0.506000 103 44 26
0.047133 0.008657 0.505000 112 53 35
0.048000 0.008640 0.504000 116 65 36
0.048863 0.008623 0.503000 118 67 38
0.049821 0.008623 0.503000 115 67 34
0.050678 0.008606 0.502000 115 67 34
0.051634 0.008606 0.502000 114 64 30
0.052590 0.008606 0.502000 112 62 28
0.053440 0.008589 0.501000 94 35 17
0.054286 0.008571 0.500000 90 31 13
0.055128 0.008554 0.499000 88 29 20
0.055966 0.008537 0.498000 87 28 19
0.056800 0.008520 0.497000 86 27 20
0.057630 0.008503 0.496000 86 27 20
0.058457 0.008486 0.495000 84 27 20
0.059400 0.008486 0.495000 82 25 18
0.060221 0.008469 0.494000 80 25 20
0.061038 0.008451 0.493000 79 24 19
0.061851 0.008434 0.492000 78 25 19
0.062789 0.008434 0.492000 78 25 19
0.063596 0.008417 0.491000 78 25 19
0.064400 0.008400 0.490000 78 25 19
0.065200 0.008383 0.489000 78 25 19
0.065996 0.008366 0.488000 78 25 19
0.066789 0.008349 0.487000 77 25 16
0.067160 0.008280 0.483000 76 24 15
0.068080 0.008280 0.483000 76 24 15
0.068857 0.008263 0.482000 77 25 16
0.069630 0.008246 0.481000 78 24 16
0.070547 0.008246 0.481000 72 18 10
0.071909 0.008297 0.484000 68 11 4
0.072830 0.008297 0.484000 66 9 2
0.073600 0.008280 0.483000 69 10 3
0.074520 0.008280 0.483000 69 10 3
0.075440 0.008280 0.483000 68 9 2
0.076202 0.008263 0.482000 68 9 2
0.076640 0.008211 0.479000 69 10 3
0.077390 0.008194 0.478000 69 10 3
0.078301 0.008194 0.478000 69 10 3
0.079377 0.008211 0.479000 70 11 4
0.080290 0.008211 0.479000 70 11 4
0.081202 0.008211 0.479000 74 15 8
0.082114 0.008211 0.479000 76 18 6
0.083027 0.008211 0.479000 77 19 7
0.084640 0.008280 0.483000 79 21 9
0.085560 0.008280 0.483000 79 21 9
0.086122 0.008246 0.481000 80 22 10
0.087219 0.008263 0.482000 80 22 10
0.088503 0.008297 0.484000 79 23 11
0.089055 0.008263 0.482000 79 23 11
0.090347 0.008297 0.484000 79 23 11
0.090891 0.008263 0.482000 79 23 11
0.092190 0.008297 0.484000 79 23 11
0.092535 0.008246 0.481000 78 22 10
0.093646 0.008263 0.482000 78 22 10
0.094564 0.008263 0.482000 78 22 10
0.095482 0.008263 0.482000 76 23 10
0.096800 0.008297 0.484000 75 22 9
0.097924 0.008314 0.485000 75 22 9
0.099051 0.008331 0.486000 75 22 9
0.099977 0.008331 0.486000 76 23 10
0.100903 0.008331 0.486000 75 22 9
0.102038 0.008349 0.487000 77 21 9
0.102966 0.008349 0.487000 78 22 10
0.104107 0.008366 0.488000 77 21 9
0.105036 0.008366 0.488000 77 21 9
0.105966 0.008366 0.488000 77 21 9
0.107114 0.008383 0.489000 77 21 9
0.108267 0.008400 0.490000 75 22 9
0.109423 0.008417 0.491000 75 22 9
0.110358 0.008417 0.491000 76 23 10
0.111520 0.008434 0.492000 76 23 10
0.112686 0.008451 0.493000 76 23 10
0.113855 0.008469 0.494000 76 23 10
0.114796 0.008469 0.494000 77 23 13
0.115737 0.008469 0.494000 77 23 13
0.116914 0.008486 0.495000 77 23 13
0.118095 0.008503 0.496000 76 22 12
0.119280 0.008520 0.497000 77 23 13
0.120227 0.008520 0.497000 76 22 12
0.121417 0.008537 0.498000 77 23 15
0.122611 0.008554 0.499000 76 22 14
0.126781 0.008777 0.512000 76 24 15
0.128006 0.008794 0.513000 75 23 14
0.129234 0.008811 0.514000 73 24 14
0.129200 0.008743 0.510000 73 24 14
0.130427 0.008760 0.511000 74 25 15
0.131657 0.008777 0.512000 74 25 15
0.133150 0.008811 0.514000 74 25 15
0.134390 0.008829 0.515000 75 26 16
0.135634 0.008846 0.516000 76 28 20
0.136882 0.008863 0.517000 83 35 27
0.138133 0.008880 0.518000 92 56 44
0.139389 0.008897 0.519000 95 59 47
0.140648 0.008914 0.520000 96 65 52
0.140549 0.008846 0.516000 98 67 54
0.143451 0.008966 0.523000 86 52 40
0.143067 0.008880 0.518000 72 38 26
0.144331 0.008897 0.519000 109 78 65
0.145600 0.008914 0.520000 109 78 65
0.146872 0.008931 0.521000 101 72 60
0.148149 0.008949 0.522000 99 70 58
0.151714 0.009103 0.531000 113 90 71
0.153301 0.009137 0.533000 114 91 72
0.154606 0.009154 0.534000 110 90 68
0.155914 0.009171 0.535000 111 91 69
0.157227 0.009189 0.536000 112 92 72
0.158543 0.009206 0.537000 111 91 71
0.159863 0.009223 0.538000 115 86 72
0.161187 0.009240 0.539000 84 55 41
0.162514 0.009257 0.540000 88 45 36
0.163846 0.009274 0.541000 85 42 33
0.165181 0.009291 0.542000 87 41 33
0.166520 0.009309 0.543000 86 40 32
0.167863 0.009326 0.544000 85 39 31
0.169210 0.009343 0.545000 85 39 31
0.170560 0.009360 0.546000 85 39 31
0.171600 0.009360 0.546000 86 40 32
0.172956 0.009377 0.547000 90 46 30
0.172408 0.009291 0.542000 105 61 45
0.173760 0.009309 0.543000 110 68 38
0.175438 0.009343 0.545000 109 67 37
0.176800 0.009360 0.546000 110 66 34
0.178166 0.009377 0.547000 111 67 35
0.179535 0.009394 0.548000 110 66 34
0.180909 0.009411 0.549000 110 66 34
0.182617 0.009446 0.551000 110 66 36
0.184000 0.009463 0.552000 111 67 37
0.187063 0.009566 0.558000 111 67 37
0.188800 0.009600 0.560000 112 68 38
0.190545 0.009634 0.562000 112 68 38
0.192297 0.009669 0.564000 111 67 37
0.193714 0.009686 0.565000 111 67 37
0.195480 0.009720 0.567000 112 68 38
0.197253 0.009754 0.569000 114 70 40
0.198686 0.009771 0.570000 114 70 40
0.200122 0.009789 0.571000 110 67 42
0.201914 0.009823 0.573000 105 62 37
0.203714 0.009857 0.575000 99 57 43
0.205166 0.009874 0.576000 98 56 42
0.206263 0.009874 0.576000 97 56 46
0.207720 0.009891 0.577000 99 58 48
0.209181 0.009909 0.578000 101 64 59
0.210646 0.009926 0.579000 106 69 64
0.212480 0.009960 0.581000 102 74 71
0.028834 0.009943 0.522000 79 59 51
0.029829 0.009943 0.522000 100 40 38
0.030764 0.009924 0.521000 98 38 36
0.031695 0.009905 0.520000 101 35 29
0.032623 0.009886 0.519000 99 33 27
0.033547 0.009867 0.518000 100 31 26
0.034200 0.009771 0.513000 99 30 25
0.035109 0.009752 0.512000 101 29 25
0.036084 0.009752 0.512000 101 29 25
0.037059 0.009752 0.512000 101 29 25
0.037960 0.009733 0.511000 101 29 25
0.038933 0.009733 0.511000 102 30 26
0.039750 0.009695 0.509000 102 30 26
0.040640 0.009676 0.508000 100 32 24
0.041608 0.009676 0.508000 104 36 28
0.042575 0.009676 0.508000 106 41 28
0.043457 0.009657 0.507000 102 37 24
0.044423 0.009657 0.507000 111 52 32
0.045299 0.009638 0.506000 111 52 32
0.046263 0.009638 0.506000 107 51 27
0.047133 0.009619 0.505000 114 58 34
0.048000 0.009600 0.504000 122 73 43
0.048863 0.009581 0.503000 126 77 47
0.049821 0.009581 0.503000 119 74 38
0.050678 0.009562 0.502000 116 71 35
0.051634 0.009562 0.502000 117 69 32
0.052590 0.009562 0.502000 114 66 29
0.053440 0.009543 0.501000 111 53 28
0.054286 0.009524 0.500000 90 32 7
0.055128 0.009505 0.499000 91 28 18
0.056078 0.009505 0.499000 91 28 18
0.056914 0.009486 0.498000 88 27 19
0.057747 0.009467 0.497000 88 27 19
0.058575 0.009448 0.496000 87 28 21
0.059400 0.009429 0.495000 86 27 20
0.060221 0.009410 0.494000 84 27 20
0.061162 0.009410 0.494000 82 25 18
0.061977 0.009390 0.493000 79 25 17
0.062789 0.009371 0.492000 79 25 17
0.063596 0.009352 0.491000 79 25 17
0.064400 0.009333 0.490000 79 25 17
0.065333 0.009333 0.490000 78 26 17
0.066131 0.009314 0.489000 78 26 17
0.066377 0.009219 0.484000 77 25 16
0.067160 0.009200 0.483000 76 24 15
0.068080 0.009200 0.483000 76 24 15
0.068857 0.009181 0.482000 77 25 16
0.069630 0.009162 0.481000 77 23 15
0.070547 0.009162 0.481000 72 18 10
0.071909 0.009219 0.484000 70 11 4
0.072830 0.009219 0.484000 69 10 3
0.073600 0.009200 0.483000 69 10 3
0.074520 0.009200 0.483000 69 10 3
0.075440 0.009200 0.483000 68 9 2
0.076202 0.009181 0.482000 69 10 3
0.076640 0.009124 0.479000 69 10 3
0.077390 0.009105 0.478000 69 10 3
0.078301 0.009105 0.478000 69 10 3
0.079377 0.009124 0.479000 70 11 4
0.080290 0.009124 0.479000 68 11 4
0.081202 0.009124 0.479000 72 15 8
0.082114 0.009124 0.479000 75 19 7
0.083027 0.009124 0.479000 77 21 9
0.084640 0.009200 0.483000 77 21 9
0.085206 0.009162 0.481000 77 21 9
0.086122 0.009162 0.481000 78 22 10
0.087219 0.009181 0.482000 78 22 10
0.088137 0.009181 0.482000 79 23 11
0.089055 0.009181 0.482000 78 22 10
0.089973 0.009181 0.482000 78 22 10
0.090891 0.009181 0.482000 78 22 10
0.091810 0.009181 0.482000 78 22 10
0.092728 0.009181 0.482000 78 22 10
0.093646 0.009181 0.482000 77 21 9
0.094760 0.009200 0.483000 77 21 9
0.095482 0.009181 0.482000 75 21 11
0.096800 0.009219 0.484000 75 21 11
0.098126 0.009257 0.486000 75 21 11
0.099051 0.009257 0.486000 75 21 11
0.100183 0.009276 0.487000 75 21 11
0.101110 0.009276 0.487000 75 21 11
0.102248 0.009295 0.488000 77 20 11
0.103177 0.009295 0.488000 78 21 12
0.104320 0.009314 0.489000 77 20 11
0.105251 0.009314 0.489000 77 20 11
0.106183 0.009314 0.489000 78 21 12
0.107333 0.009333 0.490000 78 21 12
0.108488 0.009352 0.491000 77 20 11
0.109423 0.009352 0.491000 77 20 11
0.110583 0.009371 0.492000 78 21 12
0.111520 0.009371 0.492000 78 21 12
0.112686 0.009390 0.493000 79 22 13
0.113855 0.009410 0.494000 79 22 13
0.115029 0.009429 0.495000 77 23 13
0.115971 0.009429 0.495000 77 23 13
0.117150 0.009448 0.496000 77 23 13
0.118333 0.009467 0.497000 76 22 12
0.119280 0.009467 0.497000 77 23 13
0.120469 0.009486 0.498000 76 22 12
0.121661 0.009505 0.499000 77 23 15
0.122857 0.009524 0.500000 77 23 15
0.123810 0.009524 0.500000 76 24 15
0.125011 0.009543 0.501000 76 24 15
0.129486 0.009810 0.515000 74 25 15
0.129453 0.009733 0.511000 74 25 15
0.130682 0.009752 0.512000 74 27 16
0.131914 0.009771 0.513000 74 27 16
0.133410 0.009810 0.515000 74 27 16
0.134651 0.009829 0.516000 76 29 18
0.135897 0.009848 0.517000 83 37 29
0.137147 0.009867 0.518000 98 52 44
0.138400 0.009886 0.519000 94 63 50
0.139657 0.009905 0.520000 98 67 54
0.140918 0.009924 0.521000 101 75 60
0.142183 0.009943 0.522000 102 76 61
0.143726 0.009981 0.524000 94 63 50
0.143343 0.009886 0.519000 74 43 30
0.144610 0.009905 0.520000 109 80 66
0.145880 0.009924 0.521000 111 82 68
0.147154 0.009943 0.522000 103 74 62
0.148432 0.009962 0.523000 104 75 63
0.152000 0.010133 0.532000 113 90 71
0.153589 0.010171 0.534000 114 91 72
0.154895 0.010190 0.535000 104 84 64
0.156206 0.010210 0.536000 104 84 64
0.157520 0.010229 0.537000 109 86 67
0.158838 0.010248 0.538000 107 84 65
0.160160 0.010267 0.539000 107 73 61
0.161486 0.010286 0.540000 84 50 38
0.162815 0.010305 0.541000 86 40 32
0.164149 0.010324 0.542000 85 39 31
0.165486 0.010343 0.543000 87 39 31
0.166827 0.010362 0.544000 87 39 31
0.168171 0.010381 0.545000 86 38 30
0.169210 0.010381 0.545000 86 38 30
0.170560 0.010400 0.546000 87 39 31
0.171914 0.010419 0.547000 88 40 32
0.173272 0.010438 0.548000 96 50 32
0.172726 0.010343 0.543000 109 63 45
0.174080 0.010362 0.544000 114 70 38
0.175760 0.010400 0.546000 112 68 36
0.177124 0.010419 0.547000 110 66 34
0.178491 0.010438 0.548000 111 67 35
0.179863 0.010457 0.549000 111 67 35
0.181238 0.010476 0.550000 111 67 35
0.182949 0.010514 0.552000 110 66 34
0.184333 0.010533 0.553000 110 66 34
0.186057 0.010571 0.555000 111 67 35
0.187451 0.010590 0.556000 112 68 36
0.190884 0.010724 0.563000 111 67 37
0.192638 0.010762 0.565000 110 66 36
0.194057 0.010781 0.566000 111 67 39
0.195825 0.010819 0.568000 112 68 40
0.197253 0.010838 0.569000 114 70 42
0.199034 0.010876 0.571000 111 67 39
0.200472 0.010895 0.572000 108 65 42
0.202267 0.010933 0.574000 104 61 38
0.203714 0.010952 0.575000 97 57 44
0.205166 0.010971 0.576000 97 57 44
0.206621 0.010990 0.577000 95 57 46
0.208080 0.011010 0.578000 97 59 48
0.209543 0.011029 0.579000 101 64 61
0.211010 0.011048 0.580000 107 70 67
0.212480 0.011067 0.581000 99 71 68
0.029829 0.010937 0.522000 100 40 38
0.030764 0.010916 0.521000 100 40 38
0.031695 0.010895 0.520000 101 35 29
0.032623 0.010874 0.519000 99 33 27
0.033547 0.010853 0.518000 101 32 27
0.034200 0.010749 0.513000 100 31 26
0.035109 0.010728 0.512000 102 30 26
0.036084 0.010728 0.512000 102 30 26
0.037059 0.010728 0.512000 102 30 26
0.037960 0.010707 0.511000 102 30 26
0.038933 0.010707 0.511000 102 30 26
0.039750 0.010665 0.509000 104 32 28
0.040640 0.010644 0.508000 103 35 25
0.041608 0.010644 0.508000 110 42 32
0.042575 0.010644 0.508000 118 56 37
0.043543 0.010644 0.508000 105 43 24
0.044423 0.010623 0.507000 115 57 34
0.045299 0.010602 0.506000 119 61 38
0.046263 0.010602 0.506000 114 58 30
0.047227 0.010602 0.506000 117 61 33
0.048095 0.010581 0.505000 124 76 43
0.048960 0.010560 0.504000 128 80 47
0.049821 0.010539 0.503000 120 75 39
0.050779 0.010539 0.503000 118 73 37
0.051737 0.010539 0.503000 118 70 33
0.052590 0.010518 0.502000 115 67 30
0.053440 0.010497 0.501000 119 64 33
0.054394 0.010497 0.501000 96 41 10
0.055238 0.010476 0.500000 92 29 17
0.056078 0.010455 0.499000 91 28 16
0.057029 0.010455 0.499000 91 25 19
0.057863 0.010434 0.498000 92 26 20
0.058693 0.010413 0.497000 89 28 20
0.059520 0.010392 0.496000 88 27 19
0.060343 0.010371 0.495000 87 26 20
0.061286 0.010371 0.495000 87 26 20
0.062103 0.010350 0.494000 84 25 18
0.062916 0.010330 0.493000 84 25 18
0.063726 0.010309 0.492000 82 25 18
0.064531 0.010288 0.491000 81 24 17
0.065467 0.010288 0.491000 79 25 17
0.066267 0.010267 0.490000 79 25 17
0.066514 0.010162 0.485000 78 26 17
0.067299 0.010141 0.484000 77 25 16
0.068221 0.010141 0.484000 76 24 15
0.069000 0.010120 0.483000 77 25 16
0.069775 0.010099 0.482000 77 23 15
0.070693 0.010099 0.482000 72 18 10
0.071611 0.010099 0.482000 68 11 4
0.072379 0.010078 0.481000 67 10 3
0.073295 0.010078 0.481000 69 10 3
0.074211 0.010078 0.481000 69 10 3
0.074971 0.010057 0.480000 68 9 2
0.075886 0.010057 0.480000 69 10 3
0.076800 0.010057 0.480000 69 10 3
0.077552 0.010036 0.479000 69 10 3
0.078465 0.010036 0.479000 69 10 3
0.079377 0.010036 0.479000 70 11 4
0.080290 0.010036 0.479000 68 11 4
0.081202 0.010036 0.479000 72 15 8
0.082286 0.010057 0.480000 75 19 7
0.083893 0.010141 0.484000 77 21 9
0.084815 0.010141 0.484000 77 21 9
0.085383 0.010099 0.482000 77 21 9
0.086301 0.010099 0.482000 77 21 9
0.087219 0.010099 0.482000 77 21 9
0.088320 0.010120 0.483000 75 19 7
0.089055 0.010099 0.482000 77 21 9
0.089973 0.010099 0.482000 75 19 7
0.090891 0.010099 0.482000 77 21 9
0.092000 0.010120 0.483000 77 21 9
0.092920 0.010120 0.483000 77 21 9
0.093840 0.010120 0.483000 77 21 9
0.094760 0.010120 0.483000 75 19 7
0.095680 0.010120 0.483000 73 19 9
0.096600 0.010120 0.483000 73 19 9
0.097924 0.010162 0.485000 73 19 9
0.099255 0.010204 0.487000 73 19 9
0.100183 0.010204 0.487000 75 21 11
0.101110 0.010204 0.487000 75 21 11
0.101829 0.010183 0.486000 77 20 11
0.103177 0.010225 0.488000 78 21 12
0.104320 0.010246 0.489000 78 21 12
0.105251 0.010246 0.489000 77 20 11
0.106400 0.010267 0.490000 78 21 12
0.107333 0.010267 0.490000 78 21 12
0.108488 0.010288 0.491000 77 20 11
0.109423 0.010288 0.491000 77 20 11
0.110583 0.010309 0.492000 78 21 12
0.111520 0.010309 0.492000 78 21 12
0.112686 0.010330 0.493000 79 22 13
0.113855 0.010350 0.494000 78 21 12
0.115029 0.010371 0.495000 79 22 13
0.115971 0.010371 0.495000 79 22 13
0.117150 0.010392 0.496000 77 23 13
0.118333 0.010413 0.497000 76 22 12
0.119280 0.010413 0.497000 77 23 13
0.120469 0.010434 0.498000 77 23 13
0.121661 0.010455 0.499000 76 24 15
0.122857 0.010476 0.500000 76 24 15
0.123810 0.010476 0.500000 74 25 15
0.125011 0.010497 0.501000 74 25 15
0.129486 0.010790 0.515000 73 26 15
0.129453 0.010707 0.511000 73 26 15
0.130682 0.010728 0.512000 75 28 17
0.131914 0.010749 0.513000 78 31 20
0.133410 0.010790 0.515000 76 29 18
0.134651 0.010811 0.516000 81 34 23
0.135897 0.010832 0.517000 90 50 37
0.137147 0.010853 0.518000 101 61 48
0.138400 0.010874 0.519000 98 70 53
0.139926 0.010916 0.521000 103 75 58
0.141189 0.010937 0.522000 103 79 63
0.142455 0.010958 0.523000 106 82 66
0.142354 0.010874 0.519000 95 66 52
0.143619 0.010895 0.520000 73 44 30
0.144888 0.010916 0.521000 115 86 72
0.146160 0.010937 0.522000 113 84 70
0.147436 0.010958 0.523000 102 76 63
0.148716 0.010979 0.524000 104 78 65
0.152286 0.011168 0.533000 112 92 72
0.153876 0.011210 0.535000 112 92 72
0.155185 0.011230 0.536000 98 75 56
0.156497 0.011251 0.537000 95 72 53
0.157813 0.011272 0.538000 106 76 60
0.159133 0.011293 0.539000 102 72 56
0.160457 0.011314 0.540000 102 61 51
0.161785 0.011335 0.541000 87 46 36
0.163116 0.011356 0.542000 85 39 31
0.164451 0.011377 0.543000 84 38 30
0.165790 0.011398 0.544000 86 38 30
0.167133 0.011419 0.545000 86 38 30
0.168480 0.011440 0.546000 86 38 30
0.169520 0.011440 0.546000 86 38 30
0.170872 0.011461 0.547000 87 40 29
0.172229 0.011482 0.548000 90 43 32
0.173589 0.011503 0.549000 102 57 34
0.174952 0.011524 0.550000 111 66 43
0.174400 0.011419 0.545000 114 70 38
0.175760 0.011440 0.546000 114 70 38
0.177448 0.011482 0.548000 111 67 35
0.178817 0.011503 0.549000 111 67 35
0.180190 0.011524 0.550000 110 66 34
0.181568 0.011545 0.551000 111 67 35
0.183280 0.011587 0.553000 110 64 33
0.184667 0.011608 0.554000 111 65 34
0.186392 0.011650 0.556000 111 65 34
0.187789 0.011670 0.557000 112 66 35
0.189189 0.011691 0.558000 110 66 36
0.192979 0.011859 0.566000 110 66 36
0.194400 0.011880 0.567000 111 67 39
0.196170 0.011922 0.569000 112 68 40
0.197947 0.011964 0.571000 114 70 42
0.199383 0.011985 0.572000 111 67 39
0.200823 0.012006 0.573000 106 62 42
0.202619 0.012048 0.575000 101 57 37
0.204069 0.012069 0.576000 96 56 43
0.205522 0.012090 0.577000 97 57 44
0.206979 0.012110 0.578000 95 57 48
0.208080 0.012110 0.578000 99 61 52
0.209543 0.012131 0.579000 100 65 62
0.211010 0.012152 0.580000 106 71 68
0.212480 0.012173 0.581000 94 68 64
0.029886 0.011954 0.523000 100 40 38
0.030823 0.011931 0.522000 101 41 39
0.031756 0.011909 0.521000 102 36 30
0.032686 0.011886 0.520000 101 35 29
0.033611 0.011863 0.519000 102 33 28
0.034200 0.011726 0.513000 101 32 27
0.035109 0.011703 0.512000 100 31 26
0.036084 0.011703 0.512000 101 32 27
0.037059 0.011703 0.512000 102 33 28
0.037960 0.011680 0.511000 101 32 27
0.038933 0.011680 0.511000 103 35 27
0.039750 0.011634 0.509000 108 40 32
0.040640 0.011611 0.508000 107 43 27
0.041608 0.011611 0.508000 111 47 31
0.042575 0.011611 0.508000 119 61 38
0.043543 0.011611 0.508000 115 57 34
0.044423 0.011589 0.507000 116 60 32
0.045299 0.011566 0.506000 124 68 40
0.046263 0.011566 0.506000 117 64 33
0.047227 0.011566 0.506000 118 65 34
0.048095 0.011543 0.505000 124 76 41
0.048960 0.011520 0.504000 129 81 46
0.049821 0.011497 0.503000 120 75 37
0.050779 0.011497 0.503000 118 73 35
0.051737 0.011497 0.503000 119 70 31
0.052590 0.011474 0.502000 116 67 28
0.053440 0.011451 0.501000 120 65 30
0.054394 0.011451 0.501000 116 61 26
0.055238 0.011429 0.500000 93 30 16
0.056078 0.011406 0.499000 92 29 15
0.057029 0.011406 0.499000 92 26 20
0.057863 0.011383 0.498000 92 26 20
0.058693 0.011360 0.497000 91 27 22
0.059520 0.011337 0.496000 90 26 21
0.060343 0.011314 0.495000 87 26 20
0.061286 0.011314 0.495000 87 26 20
0.062103 0.011291 0.494000 87 26 20
0.062916 0.011269 0.493000 87 26 20
0.063726 0.011246 0.492000 86 27 20
0.064531 0.011223 0.491000 86 27 20
0.065467 0.011223 0.491000 82 25 18
0.066267 0.011200 0.490000 82 25 18
0.066514 0.011086 0.485000 79 25 17
0.067994 0.011177 0.489000 78 24 16
0.068362 0.011086 0.485000 78 24 16
0.069143 0.011063 0.484000 79 25 17
0.069920 0.011040 0.483000 79 22 15
0.070840 0.011040 0.483000 73 16 9
0.071760 0.011040 0.483000 70 11 4
0.072530 0.011017 0.482000 69 10 3
0.073448 0.011017 0.482000 69 10 3
0.074366 0.011017 0.482000 69 10 3
0.075128 0.010994 0.481000 69 10 3
0.076044 0.010994 0.481000 69 10 3
0.076960 0.010994 0.481000 70 11 4
0.077714 0.010971 0.480000 69 10 3
0.078629 0.010971 0.480000 69 10 3
0.079543 0.010971 0.480000 70 11 4
0.080457 0.010971 0.480000 68 11 4
0.081371 0.010971 0.480000 72 15 8
0.082457 0.010994 0.481000 75 19 7
0.083373 0.010994 0.481000 75 19 7
0.084990 0.011086 0.485000 77 21 9
0.085914 0.011086 0.485000 75 19 7
0.086301 0.011017 0.482000 75 19 7
0.087400 0.011040 0.483000 74 18 6
0.088320 0.011040 0.483000 74 18 6
0.089240 0.011040 0.483000 75 19 7
0.090160 0.011040 0.483000 75 19 7
0.091080 0.011040 0.483000 77 21 9
0.092000 0.011040 0.483000 77 21 9
0.092920 0.011040 0.483000 75 19 7
0.093840 0.011040 0.483000 77 20 11
0.094956 0.011063 0.484000 75 18 9
0.095878 0.011063 0.484000 75 18 9
0.096800 0.011063 0.484000 75 18 9
0.098126 0.011109 0.486000 73 19 9
0.098848 0.011086 0.485000 73 19 9
0.100183 0.011131 0.487000 75 21 11
0.101110 0.011131 0.487000 75 21 11
0.102038 0.011131 0.487000 77 20 11
0.102966 0.011131 0.487000 78 21 12
0.104320 0.011177 0.489000 78 21 12
0.105467 0.011200 0.490000 78 21 12
0.106617 0.011223 0.491000 78 21 12
0.107552 0.011223 0.491000 77 20 11
0.108709 0.011246 0.492000 78 21 12
0.109646 0.011246 0.492000 77 20 11
0.110808 0.011269 0.493000 78 21 12
0.111747 0.011269 0.493000 79 22 13
0.112914 0.011291 0.494000 79 22 13
0.114086 0.011314 0.495000 78 21 12
0.115261 0.011337 0.496000 78 21 12
0.116206 0.011337 0.496000 79 22 13
0.117387 0.011360 0.497000 77 23 13
0.118571 0.011383 0.498000 76 22 12
0.119520 0.011383 0.498000 77 23 13
0.120710 0.011406 0.499000 77 23 13
0.121905 0.011429 0.500000 76 24 15
0.122857 0.011429 0.500000 76 24 15
0.124057 0.011451 0.501000 74 25 15
0.127008 0.011634 0.509000 74 25 15
0.128480 0.011680 0.511000 74 27 16
0.129707 0.011703 0.512000 76 29 18
0.130937 0.011726 0.513000 78 36 24
0.132171 0.011749 0.514000 83 41 29
0.133669 0.011794 0.516000 75 33 21
0.134912 0.011817 0.517000 84 42 30
0.136160 0.011840 0.518000 99 65 45
0.137411 0.011863 0.519000 108 74 54
0.138667 0.011886 0.520000 101 76 56
0.139926 0.011909 0.521000 106 81 61
0.141189 0.011931 0.522000 107 84 65
0.142728 0.011977 0.524000 107 84 65
0.144000 0.012000 0.525000 97 68 54
0.143619 0.011886 0.520000 75 46 32
0.144888 0.011909 0.521000 118 89 75
0.146160 0.011931 0.522000 115 86 72
0.147436 0.011954 0.523000 102 76 63
0.150987 0.012160 0.532000 106 80 67
0.152571 0.012206 0.534000 113 90 71
0.153876 0.012229 0.535000 113 90 71
0.155185 0.012251 0.536000 96 67 53
0.156497 0.012274 0.537000 82 53 39
0.157813 0.012297 0.538000 97 59 48
0.159133 0.012320 0.539000 96 58 47
0.160457 0.012343 0.540000 93 47 39
0.161785 0.012366 0.541000 86 40 32
0.163116 0.012389 0.542000 86 38 30
0.164451 0.012411 0.543000 85 37 29
0.165790 0.012434 0.544000 87 37 30
0.167133 0.012457 0.545000 87 37 30
0.168480 0.012480 0.546000 87 37 30
0.169520 0.012480 0.546000 87 37 30
0.170872 0.012503 0.547000 88 41 30
0.172229 0.012526 0.548000 95 48 37
0.173589 0.012549 0.549000 107 62 37
0.174952 0.012571 0.550000 112 67 42
0.174400 0.012457 0.545000 114 70 38
0.176082 0.012503 0.547000 114 70 38
0.177448 0.012526 0.548000 111 67 35
0.179143 0.012571 0.550000 111 67 35
0.180518 0.012594 0.551000 111 65 34
0.181897 0.012617 0.552000 111 65 34
0.183611 0.012663 0.554000 110 64 33
0.185000 0.012686 0.555000 110 64 33
0.186728 0.012731 0.557000 111 65 34
0.188126 0.012754 0.558000 111 65 34
0.189528 0.012777 0.559000 110 64 35
0.192979 0.012937 0.566000 110 64 35
0.194743 0.012983 0.568000 111 67 39
0.196514 0.013029 0.570000 112 68 40
0.197947 0.013051 0.571000 112 68 40
0.199731 0.013097 0.573000 110 66 38
0.201173 0.013120 0.574000 102 61 40
0.202619 0.013143 0.575000 98 57 36
0.204069 0.013166 0.576000 93 55 44
0.205878 0.013211 0.578000 94 56 45
0.206979 0.013211 0.578000 94 58 48
0.208440 0.013234 0.579000 98 62 52
0.209905 0.013257 0.580000 100 65 62
0.211373 0.013280 0.581000 106 71 68
0.029943 0.012975 0.524000 100 40 38
0.030882 0.012950 0.523000 101 41 39
0.031817 0.012926 0.522000 102 36 30
0.032749 0.012901 0.521000 102 36 30
0.033676 0.012876 0.520000 103 34 29
0.034267 0.012728 0.514000 102 33 28
0.035177 0.012703 0.513000 104 36 28
0.036154 0.012703 0.513000 104 36 28
0.037131 0.012703 0.513000 107 42 31
0.038034 0.012678 0.512000 106 41 30
0.039010 0.012678 0.512000 106 41 28
0.039907 0.012653 0.511000 116 51 38
0.040960 0.012678 0.512000 111 53 30
0.041690 0.012604 0.509000 111 53 30
0.042575 0.012579 0.508000 122 68 40
0.043543 0.012579 0.508000 118 64 36
0.044423 0.012554 0.507000 116 63 32
0.045389 0.012554 0.507000 123 70 39
0.046263 0.012530 0.506000 121 68 35
0.047227 0.012530 0.506000 121 68 35
0.048095 0.012505 0.505000 125 75 39
0.048960 0.012480 0.504000 130 80 44
0.049920 0.012480 0.504000 124 76 39
0.050779 0.012455 0.503000 121 73 36
0.051737 0.012455 0.503000 119 70 31
0.052695 0.012455 0.503000 118 69 30
0.053547 0.012430 0.502000 118 66 26
0.054394 0.012406 0.501000 120 68 28
0.055238 0.012381 0.500000 101 39 20
0.056078 0.012356 0.499000 92 30 11
0.057029 0.012356 0.499000 92 27 18
0.057863 0.012331 0.498000 92 27 18
0.058693 0.012307 0.497000 92 26 20
0.059520 0.012282 0.496000 92 26 20
0.060343 0.012257 0.495000 90 26 21
0.061286 0.012257 0.495000 90 26 21
0.062103 0.012232 0.494000 90 26 21
0.062916 0.012208 0.493000 89 25 20
0.063726 0.012183 0.492000 88 27 21
0.064663 0.012183 0.492000 88 27 21
0.065467 0.012158 0.491000 87 26 20
0.065726 0.012034 0.486000 87 26 20
0.066514 0.012010 0.485000 84 25 18
0.067438 0.012010 0.485000 83 24 17
0.068362 0.012010 0.485000 81 24 17
0.069143 0.011985 0.484000 81 24 17
0.069920 0.011960 0.483000 79 22 15
0.070840 0.011960 0.483000 74 17 10
0.071760 0.011960 0.483000 70 11 4
0.072530 0.011935 0.482000 69 10 3
0.073448 0.011935 0.482000 69 10 3
0.074366 0.011935 0.482000 69 10 3
0.075128 0.011910 0.481000 69 10 3
0.076044 0.011910 0.481000 69 10 3
0.076960 0.011910 0.481000 70 11 4
0.077714 0.011886 0.480000 69 10 3
0.078629 0.011886 0.480000 69 10 3
0.079543 0.011886 0.480000 70 11 4
0.080457 0.011886 0.480000 70 11 4
0.081541 0.011910 0.481000 73 14 7
0.082457 0.011910 0.481000 74 18 6
0.083373 0.011910 0.481000 74 18 6
0.084990 0.012010 0.485000 74 18 6
0.085914 0.012010 0.485000 74 18 6
0.086480 0.011960 0.483000 74 18 6
0.087581 0.011985 0.484000 73 17 5
0.088320 0.011960 0.483000 74 18 6
0.089240 0.011960 0.483000 74 18 6
0.090347 0.011985 0.484000 74 18 6
0.091080 0.011960 0.483000 75 19 7
0.092190 0.011985 0.484000 77 21 9
0.093112 0.011985 0.484000 75 19 7
0.094034 0.011985 0.484000 75 18 9
0.094956 0.011985 0.484000 75 18 9
0.095878 0.011985 0.484000 75 18 9
0.097400 0.012059 0.487000 75 18 9
0.098126 0.012034 0.486000 75 18 9
0.099255 0.012059 0.487000 75 18 9
0.100389 0.012084 0.488000 77 20 11
0.101318 0.012084 0.488000 75 18 9
0.102248 0.012084 0.488000 77 20 11
0.103177 0.012084 0.488000 78 21 12
0.104533 0.012133 0.490000 78 21 12
0.105682 0.012158 0.491000 78 21 12
0.106617 0.012158 0.491000 78 21 12
0.107771 0.012183 0.492000 77 20 11
0.108709 0.012183 0.492000 77 20 11
0.109869 0.012208 0.493000 78 21 12
0.111032 0.012232 0.494000 76 22 12
0.111973 0.012232 0.494000 77 23 13
0.113143 0.012257 0.495000 76 22 12
0.114316 0.012282 0.496000 76 22 12
0.115261 0.012282 0.496000 76 22 12
0.116440 0.012307 0.497000 77 23 13
0.117623 0.012331 0.498000 77 23 13
0.118571 0.012331 0.498000 76 22 12
0.119760 0.012356 0.499000 77 23 13
0.120952 0.012381 0.500000 77 23 13
0.122149 0.012406 0.501000 76 24 15
0.124823 0.012579 0.508000 76 24 15
0.126038 0.012604 0.509000 75 26 16
0.127257 0.012629 0.510000 76 27 17
0.128731 0.012678 0.512000 73 28 17
0.129960 0.012703 0.513000 84 39 28
0.131192 0.012728 0.514000 86 49 35
0.132429 0.012752 0.515000 89 52 38
0.133928 0.012802 0.517000 78 38 25
0.135173 0.012827 0.518000 95 55 42
0.136423 0.012851 0.519000 104 75 54
0.137676 0.012876 0.520000 112 83 62
0.138933 0.012901 0.521000 100 78 54
0.140194 0.012926 0.522000 106 84 60
0.141459 0.012950 0.523000 108 85 66
0.143000 0.013000 0.525000 108 85 66
0.144274 0.013025 0.526000 99 70 56
0.143895 0.012901 0.521000 77 48 34
0.145166 0.012926 0.522000 117 91 76
0.146440 0.012950 0.523000 110 84 69
0.147718 0.012975 0.524000 102 76 63
0.151270 0.013198 0.533000 100 74 61
0.152857 0.013248 0.535000 108 83 65
0.154164 0.013272 0.536000 108 83 65
0.155474 0.013297 0.537000 94 58 46
0.156789 0.013322 0.538000 82 46 34
0.158107 0.013347 0.539000 90 47 38
0.159429 0.013371 0.540000 88 45 36
0.160754 0.013396 0.541000 87 41 33
0.162084 0.013421 0.542000 85 39 31
0.163417 0.013446 0.543000 85 37 29
0.164754 0.013470 0.544000 85 37 29
0.165790 0.013470 0.544000 87 37 30
0.167133 0.013495 0.545000 87 37 30
0.168480 0.013520 0.546000 87 37 30
0.169830 0.013545 0.547000 87 37 30
0.171185 0.013570 0.548000 89 42 29
0.172543 0.013594 0.549000 100 53 40
0.173905 0.013619 0.550000 110 66 36
0.173362 0.013495 0.545000 112 68 38
0.174720 0.013520 0.546000 114 70 38
0.176404 0.013570 0.548000 112 68 36
0.177771 0.013594 0.549000 112 66 35
0.179469 0.013644 0.551000 111 65 34
0.180846 0.013669 0.552000 110 64 33
0.182227 0.013693 0.553000 110 64 33
0.183943 0.013743 0.555000 109 63 34
0.185333 0.013768 0.556000 110 64 35
0.187063 0.013817 0.558000 111 65 36
0.188463 0.013842 0.559000 111 65 36
0.191562 0.013990 0.565000 110 64 37
0.193320 0.014040 0.567000 111 65 38
0.195086 0.014090 0.569000 112 68 40
0.196514 0.014114 0.570000 112 68 40
0.198293 0.014164 0.572000 112 68 40
0.199731 0.014189 0.573000 108 64 36
0.201173 0.014213 0.574000 100 59 38
0.202971 0.014263 0.576000 97 56 35
0.204423 0.014288 0.577000 92 56 44
0.205878 0.014312 0.578000 94 58 46
0.207337 0.014337 0.579000 92 58 50
0.208440 0.014337 0.579000 97 63 55
0.209905 0.014362 0.580000 99 67 63
0.211373 0.014387 0.581000 105 73 69
0.029943 0.013973 0.524000 101 41 39
0.030882 0.013947 0.523000 102 42 40
0.031817 0.013920 0.522000 104 38 32
0.032749 0.013893 0.521000 105 39 33
0.033676 0.013867 0.520000 106 38 30
0.034267 0.013707 0.514000 107 39 31
0.035177 0.013680 0.513000 109 44 31
0.036154 0.013680 0.513000 111 46 33
0.037131 0.013680 0.513000 117 55 38
0.038034 0.013653 0.512000 117 55 38
0.039010 0.013653 0.512000 111 52 34
0.039907 0.013627 0.511000 121 62 44
0.040800 0.013600 0.510000 120 64 36
0.041690 0.013573 0.509000 118 62 34
0.042575 0.013547 0.508000 123 73 39
0.043543 0.013547 0.508000 125 75 41
0.044423 0.013520 0.507000 118 68 32
0.045389 0.013520 0.507000 121 71 35
0.046354 0.013520 0.507000 120 70 34
0.047227 0.013493 0.506000 120 70 34
0.048190 0.013493 0.506000 125 75 39
0.049057 0.013467 0.505000 129 79 43
0.049920 0.013440 0.504000 124 77 37
0.050779 0.013413 0.503000 121 74 34
0.051840 0.013440 0.504000 119 72 32
0.052695 0.013413 0.503000 118 71 31
0.053653 0.013413 0.503000 121 69 29
0.054503 0.013387 0.502000 120 68 28
0.055349 0.013360 0.501000 116 58 31
0.056190 0.013333 0.500000 91 33 6
0.057029 0.013307 0.499000 93 28 17
0.057979 0.013307 0.499000 92 27 16
0.058811 0.013280 0.498000 92 26 20
0.059640 0.013253 0.497000 92 26 20
0.060465 0.013227 0.496000 91 27 22
0.061410 0.013227 0.496000 90 26 21
0.062229 0.013200 0.495000 90 26 21
0.063044 0.013173 0.494000 89 25 20
0.063855 0.013147 0.493000 90 26 21
0.064663 0.013120 0.492000 90 26 21
0.065467 0.013093 0.491000 90 26 21
0.066402 0.013093 0.491000 90 26 21
0.066651 0.012960 0.486000 87 26 20
0.068133 0.013067 0.490000 85 24 18
0.068926 0.013040 0.489000 85 24 18
0.069286 0.012933 0.485000 85 24 18
0.070065 0.012907 0.484000 82 23 16
0.070987 0.012907 0.484000 76 17 10
0.071909 0.012907 0.484000 70 11 4
0.072680 0.012880 0.483000 69 10 3
0.073600 0.012880 0.483000 69 10 3
0.074520 0.012880 0.483000 69 10 3
0.075284 0.012853 0.482000 70 11 4
0.076202 0.012853 0.482000 69 10 3
0.076960 0.012827 0.481000 70 11 4
0.077876 0.012827 0.481000 69 10 3
0.078792 0.012827 0.481000 70 11 4
0.079709 0.012827 0.481000 70 11 4
0.080625 0.012827 0.481000 70 11 4
0.081710 0.012853 0.482000 73 14 7
0.082629 0.012853 0.482000 75 16 7
0.083547 0.012853 0.482000 75 16 7
0.085166 0.012960 0.486000 75 17 5
0.086091 0.012960 0.486000 75 17 5
0.086659 0.012907 0.484000 75 17 5
0.087581 0.012907 0.484000 75 17 5
0.088503 0.012907 0.484000 73 17 5
0.089425 0.012907 0.484000 74 18 6
0.090533 0.012933 0.485000 74 17 8
0.091269 0.012907 0.484000 75 18 9
0.092381 0.012933 0.485000 75 18 9
0.093305 0.012933 0.485000 75 18 9
0.094229 0.012933 0.485000 75 18 9
0.095152 0.012933 0.485000 74 17 8
0.096076 0.012933 0.485000 75 18 9
0.097200 0.012960 0.486000 75 18 9
0.098328 0.012987 0.487000 75 18 9
0.099255 0.012987 0.487000 75 18 9
0.100183 0.012987 0.487000 77 20 11
0.101526 0.013040 0.489000 75 18 9
0.102667 0.013067 0.490000 78 21 12
0.103600 0.013067 0.490000 78 21 12
0.104747 0.013093 0.491000 78 21 12
0.105467 0.013067 0.490000 78 21 12
0.106834 0.013120 0.492000 78 21 12
0.107771 0.013120 0.492000 77 20 11
0.108930 0.013147 0.493000 76 22 12
0.109869 0.013147 0.493000 76 22 12
0.111032 0.013173 0.494000 76 22 12
0.112200 0.013200 0.495000 76 22 12
0.113143 0.013200 0.495000 76 22 12
0.114316 0.013227 0.496000 76 22 12
0.115261 0.013227 0.496000 76 22 12
0.116440 0.013253 0.497000 77 23 13
0.117623 0.013280 0.498000 77 23 13
0.118810 0.013307 0.499000 77 23 13
0.119760 0.013307 0.499000 76 24 13
0.120952 0.013333 0.500000 76 24 13
0.122149 0.013360 0.501000 76 24 15
0.125069 0.013573 0.509000 77 25 16
0.126286 0.013600 0.510000 75 26 16
0.127507 0.013627 0.511000 77 28 18
0.128731 0.013653 0.512000 76 30 22
0.129960 0.013680 0.513000 94 48 40
0.131192 0.013707 0.514000 92 59 44
0.132686 0.013760 0.516000 96 63 48
0.133928 0.013787 0.517000 82 47 32
