ply
format ascii 1.0
element vertex 1221
property float x
property float y
property float z
property uchar red
property uchar green
property uchar blue
end_header
-0.100869 -0.337434 -0.549898 127 120 114
-0.100678 -0.337394 -0.550869 129 122 116
-0.101261 -0.337881 -0.552277 125 116 111
-0.101844 -0.338367 -0.553688 126 117 112
-0.101652 -0.338327 -0.554662 98 62 62
-0.101461 -0.338287 -0.555637 66 30 30
-0.101269 -0.338247 -0.556611 88 46 45
-0.101850 -0.338733 -0.558030 145 103 102
-0.101658 -0.338693 -0.559006 134 106 103
-0.101467 -0.338653 -0.559982 85 57 54
-0.101275 -0.338613 -0.560959 76 33 37
-0.101083 -0.338573 -0.561935 87 44 48
-0.107057 -0.342737 -0.566530 115 78 75
-0.106863 -0.342696 -0.567519 103 66 63
-0.113600 -0.347384 -0.572609 87 36 36
-0.114172 -0.347868 -0.574070 77 26 26
-0.113975 -0.347827 -0.575075 85 18 19
-0.114547 -0.348311 -0.576541 84 17 18
-0.115118 -0.348795 -0.578010 90 17 15
-0.115688 -0.349278 -0.579482 90 17 15
-0.115490 -0.349237 -0.580492 84 26 24
-0.116059 -0.349721 -0.581969 93 35 33
-0.261713 -0.433575 -0.500320 104 71 70
-0.261466 -0.433523 -0.501575 97 64 63
-0.266059 -0.436660 -0.504477 92 48 46
-0.249687 -0.425982 -0.500215 88 44 42
-0.259115 -0.432307 -0.504781 81 42 38
-0.257258 -0.431193 -0.505473 80 41 37
-0.254598 -0.429549 -0.505877 79 41 34
-0.253548 -0.428967 -0.506837 78 40 33
-0.258937 -0.432633 -0.510069 80 39 33
-0.259495 -0.433112 -0.511608 78 37 31
-0.259249 -0.433061 -0.512862 78 35 30
-0.258199 -0.432479 -0.513827 78 35 30
-0.257149 -0.431897 -0.514789 80 34 28
-0.236025 -0.418049 -0.508436 80 34 28
-0.235787 -0.418000 -0.509644 84 34 29
-0.189010 -0.387181 -0.493703 84 34 29
-0.186385 -0.385544 -0.493926 86 36 31
-0.182960 -0.383377 -0.493841 89 39 34
-0.185949 -0.385453 -0.496147 91 41 34
-0.182526 -0.383287 -0.496049 91 41 34
-0.180708 -0.382181 -0.496545 96 44 35
-0.178090 -0.380546 -0.496730 97 45 36
-0.176274 -0.379441 -0.497211 96 47 35
-0.173660 -0.377806 -0.497378 97 48 36
-0.171847 -0.376702 -0.497845 96 50 34
-0.154051 -0.365001 -0.492069 100 54 38
-0.158639 -0.368137 -0.494999 99 52 39
-0.156834 -0.367034 -0.495427 92 45 32
-0.155030 -0.365932 -0.495849 88 43 32
-0.154025 -0.365359 -0.496583 86 41 30
-0.152223 -0.364257 -0.496993 78 44 34
-0.150423 -0.363155 -0.497398 77 43 33
-0.148624 -0.362054 -0.497795 64 46 35
-0.147623 -0.361482 -0.498511 82 64 53
-0.145826 -0.360381 -0.498898 117 107 93
-0.144030 -0.359280 -0.499278 111 101 87
-0.142236 -0.358179 -0.499651 113 99 84
-0.140443 -0.357079 -0.500018 102 88 73
-0.138651 -0.355979 -0.500379 67 29 22
-0.137655 -0.355408 -0.501067 75 37 30
-0.135866 -0.354309 -0.501417 67 29 22
-0.134077 -0.353209 -0.501759 130 92 85
-0.133084 -0.352639 -0.502435 116 99 85
-0.131298 -0.351540 -0.502766 114 97 83
-0.130306 -0.350970 -0.503434 114 97 81
-0.129315 -0.350401 -0.504098 105 88 72
-0.127532 -0.349302 -0.504414 56 21 16
-0.126543 -0.348733 -0.505070 64 29 24
-0.125554 -0.348164 -0.505723 67 26 20
-0.124566 -0.347594 -0.506373 99 58 52
-0.123578 -0.347025 -0.507019 112 93 76
-0.121801 -0.345928 -0.507309 110 91 74
-0.120815 -0.345359 -0.507947 108 91 73
-0.119829 -0.344791 -0.508582 117 100 82
-0.118845 -0.344222 -0.509214 73 42 31
-0.117071 -0.343126 -0.509483 50 19 8
-0.116088 -0.342558 -0.510107 64 16 12
-0.115106 -0.341990 -0.510727 65 17 13
-0.114124 -0.341422 -0.511345 73 13 9
-0.113143 -0.340854 -0.511959 73 13 9
-0.112162 -0.340287 -0.512570 72 12 8
-0.111182 -0.339719 -0.513178 72 12 8
-0.110203 -0.339152 -0.513782 73 11 8
-0.109224 -0.338584 -0.514383 73 11 8
-0.108246 -0.338017 -0.514982 73 11 8
-0.107269 -0.337450 -0.515576 73 11 8
-0.106292 -0.336883 -0.516168 73 12 6
-0.105316 -0.336317 -0.516756 74 13 7
-0.107483 -0.337858 -0.518867 78 14 9
-0.106507 -0.337291 -0.519455 80 16 11
-0.105531 -0.336725 -0.520040 83 17 13
-0.104557 -0.336158 -0.520622 83 17 13
-0.103582 -0.335592 -0.521201 90 52 45
-0.102609 -0.335026 -0.521776 144 106 99
-0.101636 -0.334460 -0.522349 116 110 97
-0.101447 -0.334420 -0.523310 121 115 102
-0.101258 -0.334381 -0.524272 102 91 84
-0.101069 -0.334342 -0.525233 105 94 87
-0.100880 -0.334302 -0.526195 80 69 64
-0.100691 -0.334263 -0.527157 133 122 117
-0.100502 -0.334223 -0.528118 122 120 112
-0.100314 -0.334184 -0.529080 128 126 118
-0.100125 -0.334145 -0.530042 43 36 30
-0.099936 -0.334105 -0.531003 128 121 115
-0.100527 -0.334592 -0.532372 124 122 114
-0.100338 -0.334552 -0.533335 131 129 121
-0.100149 -0.334513 -0.534299 91 92 83
-0.099959 -0.334473 -0.535262 120 121 112
-0.099770 -0.334434 -0.536225 122 123 114
-0.099581 -0.334394 -0.537188 115 116 107
-0.100170 -0.334881 -0.538568 113 109 100
-0.099981 -0.334841 -0.539533 118 114 105
-0.100569 -0.335327 -0.540918 90 81 76
-0.100379 -0.335287 -0.541885 135 126 121
-0.100189 -0.335248 -0.542851 128 124 117
-0.100777 -0.335733 -0.544243 123 119 112
-0.100586 -0.335694 -0.545211 121 114 106
-0.101173 -0.336179 -0.546607 118 111 103
-0.101758 -0.336664 -0.548007 98 82 75
-0.101567 -0.336625 -0.548978 122 106 99
-0.102152 -0.337110 -0.550382 115 99 94
-0.101961 -0.337070 -0.551355 112 96 91
-0.101769 -0.337030 -0.552328 112 93 89
-0.102353 -0.337515 -0.553739 107 88 84
-0.102935 -0.337999 -0.555153 85 41 41
-0.102744 -0.337959 -0.556129 71 27 27
-0.102552 -0.337919 -0.557106 89 40 39
-0.102360 -0.337879 -0.558082 107 58 57
-0.102168 -0.337839 -0.559058 93 50 45
-0.101977 -0.337799 -0.560034 82 39 34
-0.102557 -0.338284 -0.561459 81 32 31
-0.102365 -0.338244 -0.562437 88 39 38
-0.114124 -0.346506 -0.572662 93 33 29
-0.114697 -0.346989 -0.574123 86 26 22
-0.115270 -0.347472 -0.575587 87 17 17
-0.115073 -0.347431 -0.576594 87 17 17
-0.115644 -0.347913 -0.578063 90 17 15
-0.116216 -0.348395 -0.579535 91 18 16
-0.116786 -0.348877 -0.581011 82 29 25
-0.116587 -0.348836 -0.582022 91 38 34
-0.257520 -0.429297 -0.498757 104 68 68
-0.257275 -0.429246 -0.500002 100 64 64
-0.232810 -0.413297 -0.493003 95 53 50
-0.254365 -0.427555 -0.501662 88 46 43
-0.245247 -0.421676 -0.499843 83 44 40
-0.243395 -0.420567 -0.500506 82 43 39
-0.250410 -0.425284 -0.504256 80 42 35
-0.248556 -0.424174 -0.504923 79 41 34
-0.241065 -0.419358 -0.503593 80 39 33
-0.239216 -0.418249 -0.504236 78 37 31
-0.237369 -0.417141 -0.504873 79 36 31
-0.235522 -0.416032 -0.505503 79 36 31
-0.200705 -0.393224 -0.494199 80 34 28
-0.236656 -0.416992 -0.508499 81 35 29
-0.236418 -0.416942 -0.509708 83 35 29
-0.189593 -0.386206 -0.493762 85 37 31
-0.186965 -0.384573 -0.493985 87 37 32
-0.183536 -0.382412 -0.493899 90 40 35
-0.181715 -0.381309 -0.494402 93 43 36
-0.184707 -0.383379 -0.496712 93 43 36
-0.181283 -0.381219 -0.496603 95 46 36
-0.179464 -0.380116 -0.497093 95 46 36
-0.176845 -0.378486 -0.497269 96 47 35
-0.175029 -0.377384 -0.497744 97 48 36
-0.166811 -0.372054 -0.495730 96 47 35
-0.164200 -0.370425 -0.495868 100 51 39
-0.162391 -0.369325 -0.496309 99 53 37
-0.158184 -0.366640 -0.495798 93 47 31
-0.156378 -0.365540 -0.496221 94 47 34
-0.154574 -0.364440 -0.496638 92 45 32
-0.152770 -0.363341 -0.497049 84 43 33
-0.150968 -0.362242 -0.497453 82 41 31
-0.149167 -0.361143 -0.497850 71 44 36
-0.148165 -0.360573 -0.498566 72 45 37
-0.146367 -0.359475 -0.498953 78 64 56
-0.144570 -0.358377 -0.499332 116 102 94
-0.142774 -0.357279 -0.499706 115 100 88
-0.140979 -0.356182 -0.500072 94 79 67
-0.139185 -0.355084 -0.500433 74 37 32
-0.138189 -0.354515 -0.501121 75 38 33
-0.136397 -0.353418 -0.501470 70 34 26
-0.134607 -0.352322 -0.501813 135 99 91
-0.133613 -0.351753 -0.502489 113 99 82
-0.131825 -0.350657 -0.502820 113 99 82
-0.130833 -0.350089 -0.503487 117 100 84
-0.129841 -0.349520 -0.504152 88 71 55
-0.128057 -0.348425 -0.504467 66 30 22
-0.127066 -0.347857 -0.505123 68 32 24
-0.126077 -0.347289 -0.505776 67 26 18
-0.125088 -0.346721 -0.506425 114 73 65
-0.124099 -0.346153 -0.507072 112 93 76
-0.122320 -0.345059 -0.507361 111 92 75
-0.121333 -0.344492 -0.507999 109 92 74
-0.120347 -0.343924 -0.508635 118 101 83
-0.119361 -0.343357 -0.509267 55 21 13
-0.117586 -0.342264 -0.509535 55 21 13
-0.116602 -0.341697 -0.510159 65 17 11
-0.115619 -0.341131 -0.510779 65 17 11
-0.114636 -0.340564 -0.511397 73 13 9
-0.113654 -0.339998 -0.512011 73 13 9
-0.112673 -0.339432 -0.512622 72 12 8
-0.111692 -0.338865 -0.513229 72 12 8
-0.110712 -0.338299 -0.513834 73 11 8
-0.109732 -0.337734 -0.514435 73 11 8
-0.108754 -0.337168 -0.515033 73 11 8
-0.107775 -0.336602 -0.515628 73 11 8
-0.106798 -0.336037 -0.516219 73 12 6
-0.105821 -0.335472 -0.516807 74 13 7
-0.107990 -0.337009 -0.518918 79 13 9
-0.107013 -0.336443 -0.519506 81 15 11
-0.106037 -0.335878 -0.520092 83 17 13
-0.105061 -0.335313 -0.520673 86 20 16
-0.104086 -0.334748 -0.521252 72 29 24
-0.103112 -0.334184 -0.521827 145 102 97
-0.102923 -0.334144 -0.522791 121 113 101
-0.101949 -0.333580 -0.523361 121 113 101
-0.101760 -0.333540 -0.524323 116 109 101
-0.101571 -0.333501 -0.525284 118 111 103
-0.101383 -0.333461 -0.526246 82 73 68
-0.101194 -0.333422 -0.527208 129 120 115
-0.101005 -0.333383 -0.528169 127 123 116
-0.100816 -0.333343 -0.529131 108 104 97
-0.100627 -0.333304 -0.530092 46 35 30
-0.100438 -0.333264 -0.531054 134 123 118
-0.101030 -0.333750 -0.532423 127 123 116
-0.100841 -0.333710 -0.533386 118 114 107
-0.100652 -0.333671 -0.534349 99 95 88
-0.100463 -0.333631 -0.535313 125 121 114
-0.100273 -0.333592 -0.536276 122 115 109
-0.100864 -0.334076 -0.537655 120 113 107
-0.100674 -0.334037 -0.538619 117 106 99
-0.101264 -0.334521 -0.540003 113 102 95
-0.101074 -0.334482 -0.540969 86 72 66
-0.100884 -0.334442 -0.541936 107 93 87
-0.101472 -0.334926 -0.543326 106 90 85
-0.102060 -0.335411 -0.544719 98 82 77
-0.101869 -0.335371 -0.545689 103 80 75
-0.102456 -0.335855 -0.547087 88 65 60
-0.102265 -0.335815 -0.548058 89 59 54
-0.102851 -0.336299 -0.549461 96 66 61
-0.102660 -0.336259 -0.550434 91 59 55
-0.103245 -0.336742 -0.551842 82 50 46
-0.103053 -0.336702 -0.552816 83 41 38
-0.103637 -0.337186 -0.554229 84 42 39
-0.104220 -0.337669 -0.555644 87 32 31
-0.104028 -0.337629 -0.556622 83 28 27
-0.103836 -0.337589 -0.557600 92 34 32
-0.103644 -0.337549 -0.558578 95 37 35
-0.103452 -0.337509 -0.559556 92 40 31
-0.103260 -0.337469 -0.560533 89 37 28
-0.103068 -0.337429 -0.561511 86 32 24
-0.102876 -0.337389 -0.562489 90 36 28
-0.115043 -0.345711 -0.570708 94 38 26
-0.114845 -0.345670 -0.571711 92 36 24
-0.115420 -0.346151 -0.573171 94 30 23
-0.115994 -0.346633 -0.574633 90 26 19
-0.116567 -0.347114 -0.576099 90 18 16
-0.116369 -0.347072 -0.577108 89 17 15
-0.116942 -0.347553 -0.578578 90 17 15
-0.117513 -0.348034 -0.580052 91 18 16
-0.118085 -0.348515 -0.581530 82 34 30
-0.243610 -0.418693 -0.493934 105 69 69
-0.252265 -0.424458 -0.498155 99 63 63
-0.240708 -0.417008 -0.495540 95 56 52
-0.241278 -0.417487 -0.497027 89 50 46
-0.240233 -0.416909 -0.497961 86 47 43
-0.238380 -0.415803 -0.498612 85 46 42
-0.246212 -0.421036 -0.502633 82 44 37
-0.244359 -0.419929 -0.503291 82 44 37
-0.239281 -0.416711 -0.502803 80 42 35
-0.230177 -0.410852 -0.500866 79 41 34
-0.227526 -0.409219 -0.501196 82 41 35
-0.233736 -0.413394 -0.504699 80 39 33
-0.201433 -0.392618 -0.497963 85 39 33
-0.184916 -0.381974 -0.494257 90 42 36
-0.182290 -0.380347 -0.494460 93 45 37
-0.185285 -0.382411 -0.496770 94 46 38
-0.182660 -0.380784 -0.496965 94 46 38
-0.180839 -0.379684 -0.497457 95 47 39
-0.178217 -0.378058 -0.497634 94 47 36
-0.175598 -0.376431 -0.497802 95 48 37
-0.168173 -0.371643 -0.496097 95 48 35
-0.165559 -0.370018 -0.496236 97 50 37
-0.163748 -0.368920 -0.496679 98 50 35
-0.161937 -0.367823 -0.497115 95 47 32
-0.156929 -0.364618 -0.496277 98 50 35
-0.155122 -0.363522 -0.496694 97 49 34
-0.153317 -0.362425 -0.497104 90 45 32
-0.152313 -0.361856 -0.497830 87 42 29
-0.150510 -0.360760 -0.498229 76 42 32
-0.148708 -0.359664 -0.498621 76 42 32
-0.146908 -0.358569 -0.499007 67 48 42
-0.145109 -0.357474 -0.499387 83 64 58
-0.144109 -0.356905 -0.500090 125 107 96
-0.142312 -0.355810 -0.500458 86 68 57
-0.140516 -0.354716 -0.500820 74 37 32
-0.138722 -0.353622 -0.501175 77 40 35
-0.136929 -0.352528 -0.501524 74 43 34
-0.135137 -0.351434 -0.501867 135 104 95
-0.134143 -0.350867 -0.502542 114 100 83
-0.132353 -0.349774 -0.502873 114 100 83
-0.131360 -0.349207 -0.503541 122 105 89
-0.130367 -0.348640 -0.504205 68 51 35
-0.129375 -0.348073 -0.504866 68 30 23
-0.128384 -0.347506 -0.505523 71 33 26
-0.126599 -0.346414 -0.505829 63 27 19
-0.125609 -0.345848 -0.506478 128 92 84
-0.124620 -0.345281 -0.507125 111 92 75
-0.122839 -0.344190 -0.507414 111 92 75
-0.121851 -0.343624 -0.508052 107 93 74
-0.120864 -0.343058 -0.508687 114 100 81
-0.119878 -0.342492 -0.509319 49 15 7
-0.118892 -0.341927 -0.509947 55 21 13
-0.117116 -0.340837 -0.510211 66 16 11
-0.116132 -0.340271 -0.510831 67 17 12
-0.115148 -0.339706 -0.511448 73 13 9
-0.114166 -0.339141 -0.512063 73 13 9
-0.113183 -0.338577 -0.512673 72 12 8
-0.112202 -0.338012 -0.513281 72 12 8
-0.111221 -0.337447 -0.513885 72 12 8
-0.110241 -0.336883 -0.514486 72 12 8
-0.109261 -0.336319 -0.515084 73 11 8
-0.108282 -0.335754 -0.515679 73 11 8
-0.107303 -0.335190 -0.516270 73 12 6
-0.106326 -0.334627 -0.516859 74 13 7
-0.108498 -0.336159 -0.518970 79 13 9
-0.107520 -0.335596 -0.519558 81 15 11
-0.106543 -0.335032 -0.520143 81 15 11
-0.105566 -0.334468 -0.520724 86 20 16
-0.104590 -0.333905 -0.521303 77 24 22
-0.103615 -0.333341 -0.521878 113 60 58
-0.103426 -0.333302 -0.522841 129 111 102
-0.102452 -0.332739 -0.523412 130 112 103
-0.102263 -0.332699 -0.524373 124 115 106
-0.102074 -0.332660 -0.525335 115 106 97
-0.101885 -0.332620 -0.526297 82 68 64
-0.101696 -0.332581 -0.527258 123 109 105
-0.101507 -0.332542 -0.528220 120 104 99
-0.101318 -0.332502 -0.529182 87 71 66
-0.101129 -0.332463 -0.530143 58 35 34
-0.100940 -0.332424 -0.531105 119 96 95
-0.101533 -0.332907 -0.532474 112 91 88
-0.101344 -0.332868 -0.533437 91 70 67
-0.101155 -0.332828 -0.534400 97 74 71
-0.100966 -0.332789 -0.535364 99 76 73
-0.100776 -0.332749 -0.536327 99 73 69
-0.101368 -0.333233 -0.537706 91 65 61
-0.101178 -0.333193 -0.538670 89 57 53
-0.101769 -0.333676 -0.540054 85 53 49
-0.101579 -0.333637 -0.541020 83 48 43
-0.101389 -0.333597 -0.541987 84 49 44
-0.101978 -0.334080 -0.543377 80 43 38
-0.102566 -0.334563 -0.544770 81 44 39
-0.102376 -0.334523 -0.545740 76 34 31
-0.102964 -0.335005 -0.547138 84 42 39
-0.102773 -0.334966 -0.548109 88 42 38
-0.103359 -0.335448 -0.549512 88 42 38
-0.103168 -0.335408 -0.550485 88 42 34
-0.103754 -0.335890 -0.551893 87 41 33
-0.103562 -0.335850 -0.552868 91 39 30
-0.104147 -0.336332 -0.554280 90 38 29
-0.104731 -0.336814 -0.555696 91 31 27
-0.104539 -0.336774 -0.556674 87 27 23
-0.104347 -0.336734 -0.557652 92 31 25
-0.104155 -0.336694 -0.558630 94 33 27
-0.103963 -0.336654 -0.559607 95 35 24
-0.103770 -0.336614 -0.560585 94 34 23
-0.103578 -0.336574 -0.561563 91 31 20
-0.104160 -0.337055 -0.562992 92 32 21
-0.116340 -0.345355 -0.571213 96 33 21
-0.116143 -0.345313 -0.572219 93 30 18
-0.116718 -0.345793 -0.573680 94 26 16
-0.117292 -0.346273 -0.575144 92 24 14
-0.117094 -0.346232 -0.576153 91 19 12
-0.117668 -0.346711 -0.577622 90 18 11
-0.118241 -0.347191 -0.579094 90 17 13
-0.118813 -0.347670 -0.580570 91 18 14
-0.119385 -0.348149 -0.582049 79 36 31
-0.242864 -0.416626 -0.492243 99 88 83
-0.242626 -0.416576 -0.493455 106 70 70
-0.241578 -0.415999 -0.494394 100 64 64
-0.239722 -0.414895 -0.495054 97 58 54
-0.239485 -0.414846 -0.496262 94 55 51
-0.238439 -0.414269 -0.497191 89 50 46
-0.243051 -0.417382 -0.500075 88 49 45
-0.234735 -0.412063 -0.498477 86 48 41
-0.240151 -0.415702 -0.501657 87 49 42
-0.236685 -0.413545 -0.501729 87 49 42
-0.229187 -0.408756 -0.500357 85 47 40
-0.226534 -0.407128 -0.500683 84 43 37
-0.230332 -0.409712 -0.503315 83 42 36
-0.222845 -0.404925 -0.501888 84 41 34
-0.219391 -0.402771 -0.501895 85 42 35
-0.216745 -0.401144 -0.502184 85 42 35
-0.206856 -0.394781 -0.499799 86 43 36
-0.213068 -0.398943 -0.503327 88 45 38
-0.188711 -0.383112 -0.495512 89 46 39
-0.185277 -0.380962 -0.495421 92 46 38
-0.185863 -0.381443 -0.496829 93 47 39
-0.182432 -0.379294 -0.496720 95 47 39
-0.179004 -0.377146 -0.496598 95 47 39
-0.175578 -0.374998 -0.496463 95 48 37
-0.172957 -0.373376 -0.496624 95 48 37
-0.169536 -0.371229 -0.496465 95 48 35
-0.166919 -0.369608 -0.496605 96 49 36
-0.165106 -0.368513 -0.497049 97 49 34
-0.163294 -0.367418 -0.497486 95 47 32
-0.158280 -0.364222 -0.496650 100 52 37
-0.156472 -0.363128 -0.497068 101 53 38
-0.154665 -0.362035 -0.497480 95 49 33
-0.152859 -0.360941 -0.497885 92 46 30
-0.151054 -0.359848 -0.498284 80 42 31
-0.149251 -0.358756 -0.498676 79 41 30
-0.147449 -0.357663 -0.499062 71 46 39
-0.145648 -0.356571 -0.499442 70 45 38
-0.144647 -0.356003 -0.500144 95 75 67
-0.142849 -0.354912 -0.500513 77 57 49
-0.141052 -0.353820 -0.500874 75 40 35
-0.139256 -0.352729 -0.501229 73 38 33
-0.137461 -0.351638 -0.501578 84 55 45
-0.135668 -0.350547 -0.501920 131 102 92
-0.134672 -0.349981 -0.502596 115 101 84
-0.132881 -0.348891 -0.502927 114 100 83
-0.131886 -0.348325 -0.503594 124 105 92
-0.130893 -0.347759 -0.504258 59 40 27
-0.129900 -0.347194 -0.504919 70 34 26
-0.128908 -0.346628 -0.505576 72 36 28
-0.127916 -0.346063 -0.506231 64 28 20
-0.126925 -0.345498 -0.506882 134 98 90
-0.125141 -0.344409 -0.507177 111 94 76
-0.123358 -0.343321 -0.507466 111 94 76
-0.122370 -0.342756 -0.508104 109 92 74
-0.121382 -0.342192 -0.508739 112 95 77
-0.120395 -0.341628 -0.509371 43 12 3
-0.119408 -0.341063 -0.510000 53 22 13
-0.118422 -0.340499 -0.510625 66 16 11
-0.117437 -0.339936 -0.511247 66 16 11
-0.116452 -0.339372 -0.511866 73 14 7
-0.115468 -0.338808 -0.512481 73 14 7
-0.114485 -0.338245 -0.513094 73 12 6
-0.113502 -0.337681 -0.513703 73 12 6
-0.112520 -0.337118 -0.514309 73 12 6
-0.111538 -0.336555 -0.514911 73 12 6
-0.110558 -0.335992 -0.515511 73 12 6
-0.111945 -0.336998 -0.517237 73 12 6
-0.110964 -0.336435 -0.517835 75 11 6
-0.109984 -0.335873 -0.518430 76 12 7
-0.109005 -0.335310 -0.519021 79 13 9
-0.108026 -0.334748 -0.519609 81 15 11
-0.107048 -0.334185 -0.520194 81 15 11
-0.106858 -0.334146 -0.521162 85 19 15
-0.105881 -0.333583 -0.521742 87 25 24
-0.104905 -0.333021 -0.522319 95 33 32
-0.103929 -0.332460 -0.522892 104 67 62
-0.103740 -0.332420 -0.523856 113 76 71
-0.103550 -0.332381 -0.524819 98 73 64
-0.103361 -0.332341 -0.525782 78 53 44
-0.103172 -0.332302 -0.526745 80 50 45
-0.102983 -0.332262 -0.527709 93 63 58
-0.102793 -0.332223 -0.528672 92 57 54
-0.102604 -0.332183 -0.529635 72 37 34
-0.102415 -0.332144 -0.530598 77 35 34
-0.103009 -0.332626 -0.531967 95 53 52
-0.102820 -0.332587 -0.532932 89 48 42
-0.102630 -0.332547 -0.533897 87 46 40
-0.101658 -0.331986 -0.534451 82 38 36
-0.101469 -0.331947 -0.535415 83 39 37
-0.101280 -0.331907 -0.536378 86 40 36
-0.101872 -0.332389 -0.537757 84 38 34
-0.101682 -0.332349 -0.538721 90 42 36
-0.102273 -0.332831 -0.540105 90 42 36
-0.102084 -0.332792 -0.541072 89 41 33
-0.102674 -0.333273 -0.542460 89 41 33
-0.102484 -0.333233 -0.543428 87 39 31
-0.103073 -0.333715 -0.544822 88 40 32
-0.103662 -0.334196 -0.546218 85 32 26
-0.103471 -0.334156 -0.547189 88 35 29
-0.104059 -0.334637 -0.548591 91 37 29
-0.103867 -0.334597 -0.549564 91 37 29
-0.104454 -0.335078 -0.550970 93 36 27
-0.105040 -0.335559 -0.552380 92 35 26
-0.104849 -0.335519 -0.553356 93 35 23
-0.105434 -0.335999 -0.554770 94 36 24
-0.105242 -0.335959 -0.555748 90 30 19
-0.105826 -0.336439 -0.557167 88 28 17
-0.105634 -0.336399 -0.558146 93 27 21
-0.105441 -0.336359 -0.559126 94 28 22
-0.105249 -0.336319 -0.560105 94 29 20
-0.105056 -0.336279 -0.561085 92 27 18
-0.104864 -0.336239 -0.562064 92 27 18
-0.105446 -0.336718 -0.563495 92 27 18
-0.118017 -0.345433 -0.574189 92 21 12
-0.117819 -0.345391 -0.575197 91 20 11
-0.118394 -0.345870 -0.576665 92 17 9
-0.118968 -0.346348 -0.578136 91 16 8
-0.118769 -0.346306 -0.579148 90 17 13
-0.120114 -0.347303 -0.581087 93 20 16
-0.119915 -0.347262 -0.582102 78 40 33
-0.241875 -0.414514 -0.491767 98 84 78
-0.240827 -0.413939 -0.492704 107 71 71
-0.237349 -0.411786 -0.492817 101 65 65
-0.238733 -0.412788 -0.494568 99 60 56
-0.234449 -0.410111 -0.494389 96 57 53
-0.236641 -0.411639 -0.496420 92 55 50
-0.231552 -0.408436 -0.495941 91 54 49
-0.228892 -0.406811 -0.496288 88 52 44
-0.227042 -0.405712 -0.496908 89 53 45
-0.225194 -0.404613 -0.497522 92 54 47
-0.222539 -0.402989 -0.497843 107 69 62
-0.219886 -0.401365 -0.498154 95 59 51
-0.227727 -0.406568 -0.502219 84 48 40
-0.212166 -0.396544 -0.497873 85 44 36
-0.218390 -0.400696 -0.501371 88 47 39
-0.215742 -0.399074 -0.501656 89 46 39
-0.213902 -0.397976 -0.502228 90 47 40
-0.211258 -0.396354 -0.502496 89 46 39
-0.190097 -0.382665 -0.495870 89 46 39
-0.186659 -0.380520 -0.495780 91 48 39
-0.183223 -0.378377 -0.495677 91 48 39
-0.183007 -0.378332 -0.496778 93 47 39
-0.179575 -0.376189 -0.496656 93 47 39
-0.176950 -0.374571 -0.496828 95 48 37
-0.173523 -0.372429 -0.496681 95 48 37
-0.170901 -0.370812 -0.496832 95 48 35
-0.168282 -0.369195 -0.496974 96 49 36
-0.165664 -0.367579 -0.497105 95 48 35
-0.163850 -0.366487 -0.497543 94 47 34
-0.162038 -0.365395 -0.497974 100 52 37
-0.157021 -0.362208 -0.497124 102 54 39
-0.155212 -0.361118 -0.497535 98 50 35
-0.153405 -0.360027 -0.497940 97 49 34
-0.151599 -0.358937 -0.498339 85 43 31
-0.149794 -0.357847 -0.498731 83 41 29
-0.147990 -0.356757 -0.499117 75 44 35
-0.146188 -0.355668 -0.499496 75 44 35
-0.145186 -0.355102 -0.500199 74 49 40
-0.143386 -0.354013 -0.500567 76 51 42
-0.141587 -0.352924 -0.500928 76 41 36
-0.139789 -0.351836 -0.501283 73 38 33
-0.137993 -0.350747 -0.501632 100 74 63
-0.136995 -0.350183 -0.502312 127 101 90
-0.135201 -0.349095 -0.502649 115 101 84
-0.133408 -0.348007 -0.502980 114 100 83
-0.132413 -0.347443 -0.503647 124 105 92
-0.131419 -0.346879 -0.504311 55 36 23
-0.130425 -0.346315 -0.504972 71 35 27
-0.129432 -0.345751 -0.505630 72 36 28
-0.128439 -0.345187 -0.506284 76 42 34
-0.127448 -0.344623 -0.506935 132 98 90
-0.125662 -0.343537 -0.507230 109 95 76
-0.123877 -0.342452 -0.507519 109 95 76
-0.122888 -0.341889 -0.508157 110 93 75
-0.121899 -0.341326 -0.508792 93 76 58
-0.120911 -0.340763 -0.509423 48 14 6
-0.119924 -0.340200 -0.510052 55 21 13
-0.118937 -0.339637 -0.510677 68 15 9
-0.117951 -0.339075 -0.511299 68 15 9
-0.116965 -0.338513 -0.511918 73 14 7
-0.115981 -0.337950 -0.512533 73 14 7
-0.114996 -0.337388 -0.513146 73 12 6
-0.114013 -0.336826 -0.513755 73 12 6
-0.113030 -0.336265 -0.514360 73 12 6
-0.112047 -0.335703 -0.514963 73 12 6
-0.111066 -0.335141 -0.515562 73 12 6
-0.112454 -0.336145 -0.517289 73 12 6
-0.111473 -0.335583 -0.517887 75 11 6
-0.110492 -0.335022 -0.518481 76 12 7
-0.109512 -0.334461 -0.519072 80 11 8
-0.108533 -0.333900 -0.519660 82 13 10
-0.107554 -0.333339 -0.520245 83 14 11
-0.107364 -0.333299 -0.521213 87 18 15
-0.106386 -0.332738 -0.521793 89 25 20
-0.105409 -0.332178 -0.522370 94 30 25
-0.104432 -0.331617 -0.522943 92 39 33
-0.104243 -0.331578 -0.523907 93 40 34
-0.104054 -0.331538 -0.524870 87 46 36
-0.103864 -0.331499 -0.525833 83 42 32
-0.103675 -0.331459 -0.526796 84 41 34
-0.103486 -0.331420 -0.527760 84 41 34
-0.103297 -0.331380 -0.528723 86 40 34
-0.103107 -0.331341 -0.529686 81 35 29
-0.103703 -0.331822 -0.531054 89 36 32
-0.103513 -0.331782 -0.532018 93 40 36
-0.103323 -0.331743 -0.532983 93 39 31
-0.103134 -0.331703 -0.533948 93 39 31
-0.102944 -0.331664 -0.534913 90 36 28
-0.102755 -0.331624 -0.535878 91 37 29
-0.102565 -0.331585 -0.536843 91 37 29
-0.103158 -0.332065 -0.538223 89 35 27
-0.102968 -0.332026 -0.539190 93 36 29
-0.102778 -0.331986 -0.540156 94 37 30
-0.103370 -0.332466 -0.541543 93 36 27
-0.103179 -0.332426 -0.542511 92 35 26
-0.103770 -0.332906 -0.543903 89 33 21
-0.104360 -0.333386 -0.545298 92 36 24
-0.104949 -0.333866 -0.546696 88 30 18
-0.104758 -0.333826 -0.547669 90 32 20
-0.105346 -0.334306 -0.549072 91 31 20
-0.105155 -0.334266 -0.550047 91 31 20
-0.105742 -0.334745 -0.551455 93 30 20
-0.106329 -0.335224 -0.552866 93 30 20
-0.106137 -0.335184 -0.553844 93 30 18
-0.105944 -0.335144 -0.554822 92 29 17
-0.106530 -0.335623 -0.556239 92 27 16
-0.107115 -0.336102 -0.557660 88 23 12
-0.106922 -0.336061 -0.558641 93 25 17
-0.106729 -0.336021 -0.559622 92 24 16
-0.106536 -0.335981 -0.560603 94 23 16
-0.106344 -0.335941 -0.561584 92 21 14
-0.106151 -0.335901 -0.562565 91 20 13
-0.105958 -0.335860 -0.563546 91 20 13
-0.118544 -0.344551 -0.574242 92 20 13
-0.119120 -0.345028 -0.575708 91 19 12
-0.119695 -0.345504 -0.577178 92 17 11
-0.119496 -0.345463 -0.578189 91 16 10
-0.120071 -0.345940 -0.579664 89 17 13
-0.120644 -0.346416 -0.581141 94 22 18
-0.120445 -0.346374 -0.582156 76 41 36
-0.240072 -0.411883 -0.491020 95 79 74
-0.239835 -0.411834 -0.492224 110 72 72
-0.235543 -0.409163 -0.492060 104 66 66
-0.234497 -0.408590 -0.492981 100 63 58
-0.232642 -0.407492 -0.493622 98 61 56
-0.231598 -0.406919 -0.494535 95 58 53
-0.229745 -0.405822 -0.495165 94 57 52
-0.227893 -0.404726 -0.495788 92 55 50
-0.226042 -0.403629 -0.496404 93 56 51
-0.223383 -0.402009 -0.496730 100 66 58
-0.220727 -0.400390 -0.497045 133 99 91
-0.226155 -0.404008 -0.500232 131 102 92
-0.224307 -0.402912 -0.500834 86 57 47
-0.220037 -0.400246 -0.500556 87 49 42
-0.216578 -0.398104 -0.500554 89 51 44
-0.213929 -0.396486 -0.500834 91 48 41
-0.211282 -0.394868 -0.501105 91 48 41
-0.207830 -0.392727 -0.501068 91 48 41
-0.191484 -0.382214 -0.496228 91 48 41
-0.188043 -0.380076 -0.496140 92 49 40
-0.184604 -0.377938 -0.496038 91 48 39
-0.184387 -0.377892 -0.497140 93 48 37
-0.180952 -0.375755 -0.497019 93 48 37
-0.177519 -0.373618 -0.496885 95 48 37
-0.174892 -0.372005 -0.497047 95 48 37
-0.171464 -0.369869 -0.496889 95 48 35
-0.169646 -0.368780 -0.497343 96 49 36
-0.167025 -0.367167 -0.497476 95 48 35
-0.165209 -0.366078 -0.497915 94 47 34
-0.159382 -0.362377 -0.496761 98 49 37
-0.161581 -0.363901 -0.498773 101 52 40
-0.159769 -0.362813 -0.499192 100 52 37
-0.153951 -0.359113 -0.497996 101 53 38
-0.155348 -0.360114 -0.499688 94 48 32
-0.150337 -0.356938 -0.498786 90 44 28
-0.148531 -0.355851 -0.499172 82 44 33
-0.146727 -0.354765 -0.499551 79 41 30
-0.145724 -0.354200 -0.500253 73 43 36
-0.143922 -0.353114 -0.500621 74 44 37
-0.142122 -0.352028 -0.500983 76 41 36
-0.140323 -0.350942 -0.501337 75 40 35
-0.138525 -0.349857 -0.501686 113 87 76
-0.137526 -0.349294 -0.502366 125 99 88
-0.136528 -0.348730 -0.503043 115 101 84
-0.134734 -0.347646 -0.503375 114 100 83
-0.133737 -0.347083 -0.504044 113 92 79
-0.132742 -0.346520 -0.504709 54 33 20
-0.130950 -0.345436 -0.505025 72 35 30
-0.129956 -0.344873 -0.505683 72 35 30
-0.128963 -0.344311 -0.506337 87 53 45
-0.127970 -0.343749 -0.506988 127 93 85
-0.126183 -0.342665 -0.507283 110 96 79
-0.124396 -0.341582 -0.507571 109 95 78
-0.123406 -0.341021 -0.508209 116 99 83
-0.122417 -0.340459 -0.508844 72 55 39
-0.121428 -0.339898 -0.509476 56 20 12
-0.120440 -0.339336 -0.510104 57 21 13
-0.119452 -0.338775 -0.510729 69 16 10
-0.118465 -0.338214 -0.511351 68 15 9
-0.117479 -0.337653 -0.511970 73 14 7
-0.116493 -0.337093 -0.512585 73 14 7
-0.115508 -0.336532 -0.513197 72 13 6
-0.114523 -0.335971 -0.513806 72 13 6
-0.113540 -0.335411 -0.514412 73 12 6
-0.112556 -0.334851 -0.515014 73 12 6
-0.111574 -0.334291 -0.515614 73 12 6
-0.112964 -0.335291 -0.517340 73 12 6
-0.111982 -0.334731 -0.517938 77 11 7
-0.111000 -0.334171 -0.518533 78 12 8
-0.110020 -0.333611 -0.519124 80 11 8
-0.109039 -0.333052 -0.519712 82 13 10
-0.108060 -0.332492 -0.520296 83 14 11
-0.107869 -0.332453 -0.521264 87 18 15
-0.106891 -0.331893 -0.521844 90 24 18
-0.105913 -0.331334 -0.522421 94 28 22
-0.105723 -0.331294 -0.523386 94 35 26
-0.105533 -0.331255 -0.524351 96 37 28
-0.104557 -0.330696 -0.524921 90 39 25
-0.104367 -0.330657 -0.525884 89 38 24
-0.104178 -0.330617 -0.526847 87 39 24
-0.103989 -0.330578 -0.527810 88 40 25
-0.103800 -0.330538 -0.528774 90 36 26
-0.103610 -0.330499 -0.529737 84 30 20
-0.104207 -0.330978 -0.531105 93 34 25
-0.104017 -0.330939 -0.532069 95 36 27
-0.103827 -0.330899 -0.533034 95 37 25
-0.103638 -0.330860 -0.533999 95 37 25
-0.103448 -0.330820 -0.534964 93 35 23
-0.103259 -0.330781 -0.535929 93 35 23
-0.103069 -0.330741 -0.536894 92 32 21
-0.103663 -0.331220 -0.538274 90 30 19
-0.103473 -0.331180 -0.539241 92 32 21
-0.103283 -0.331141 -0.540207 94 34 23
-0.103875 -0.331620 -0.541594 94 31 21
-0.103685 -0.331580 -0.542562 92 29 19
-0.104276 -0.332058 -0.543954 92 29 19
-0.104867 -0.332537 -0.545349 92 29 19
-0.105457 -0.333015 -0.546748 90 25 16
-0.105266 -0.332975 -0.547721 91 26 17
-0.105855 -0.333453 -0.549124 93 25 17
-0.105664 -0.333413 -0.550099 92 24 16
-0.106252 -0.333891 -0.551507 93 25 17
-0.106839 -0.334369 -0.552918 92 24 16
-0.106647 -0.334329 -0.553896 92 24 14
-0.107234 -0.334807 -0.555312 90 22 12
-0.107820 -0.335284 -0.556731 90 22 14
-0.107627 -0.335244 -0.557712 89 21 13
-0.107434 -0.335204 -0.558693 89 21 13
-0.108019 -0.335681 -0.560119 88 20 12
-0.107826 -0.335640 -0.561102 90 19 12
-0.107633 -0.335600 -0.562084 90 19 12
-0.107440 -0.335560 -0.563067 90 19 12
-0.107247 -0.335520 -0.564050 89 18 11
-0.119846 -0.344186 -0.574752 91 19 12
-0.120422 -0.344661 -0.576219 91 19 12
-0.120223 -0.344620 -0.577231 92 17 11
-0.120799 -0.345095 -0.578704 92 17 11
-0.121374 -0.345570 -0.580180 88 19 14
-0.121174 -0.345528 -0.581195 94 25 20
-0.235825 -0.407692 -0.489461 95 76 74
-0.234778 -0.407120 -0.490384 111 73 73
-0.233732 -0.406548 -0.491303 106 68 68
-0.232686 -0.405977 -0.492219 102 65 62
-0.231642 -0.405405 -0.493132 100 63 60
-0.230597 -0.404834 -0.494041 99 62 57
-0.227932 -0.403217 -0.494387 96 59 54
-0.226079 -0.402123 -0.495005 95 58 53
-0.224228 -0.401030 -0.495617 96 59 54
-0.221568 -0.399415 -0.495937 108 79 69
-0.218910 -0.397799 -0.496248 133 104 94
-0.215445 -0.395662 -0.496261 132 111 98
-0.212791 -0.394048 -0.496550 107 86 73
-0.209331 -0.391912 -0.496539 86 50 42
-0.206681 -0.390298 -0.496807 89 53 45
-0.203225 -0.388163 -0.496772 91 50 42
-0.199772 -0.386029 -0.496723 92 51 43
-0.197129 -0.384416 -0.496959 93 50 41
-0.192067 -0.381239 -0.496287 93 50 41
-0.188622 -0.379106 -0.496198 93 50 41
-0.185179 -0.376974 -0.496096 92 49 40
-0.184963 -0.376929 -0.497199 94 49 38
-0.182329 -0.375319 -0.497383 93 48 37
-0.178893 -0.373187 -0.497250 95 48 37
-0.176264 -0.371578 -0.497414 95 48 37
-0.172832 -0.369448 -0.497257 95 48 35
-0.170207 -0.367840 -0.497400 96 49 36
-0.167584 -0.366232 -0.497532 95 48 35
-0.165766 -0.365146 -0.497971 94 47 34
-0.159934 -0.361454 -0.496817 98 49 37
-0.162135 -0.362974 -0.498829 100 51 39
-0.160322 -0.361888 -0.499248 98 50 35
-0.154497 -0.358198 -0.498051 103 55 40
-0.155896 -0.359197 -0.499744 98 50 35
-0.150879 -0.356029 -0.498841 95 47 32
-0.149072 -0.354945 -0.499226 89 47 35
-0.147267 -0.353861 -0.499605 83 41 29
-0.146263 -0.353299 -0.500308 78 42 32
-0.144459 -0.352215 -0.500676 78 42 32
-0.142657 -0.351132 -0.501037 79 43 35
-0.140856 -0.350049 -0.501391 78 42 34
-0.139056 -0.348967 -0.501740 119 95 83
-0.138057 -0.348405 -0.502420 123 99 87
-0.137058 -0.347843 -0.503096 115 101 84
-0.135262 -0.346761 -0.503428 119 105 88
-0.134265 -0.346199 -0.504097 105 80 71
-0.133269 -0.345638 -0.504762 62 37 28
-0.131475 -0.344557 -0.505078 74 35 31
-0.130480 -0.343996 -0.505736 72 33 29
-0.129486 -0.343435 -0.506390 102 71 62
-0.128493 -0.342874 -0.507041 126 95 86
-0.126703 -0.341793 -0.507336 110 96 79
-0.125711 -0.341233 -0.507978 109 95 78
-0.124720 -0.340673 -0.508618 116 99 83
-0.123729 -0.340112 -0.509254 55 38 22
-0.122739 -0.339552 -0.509887 57 19 12
-0.121750 -0.338992 -0.510517 58 20 13
-0.119967 -0.337913 -0.510781 70 15 10
-0.118979 -0.337354 -0.511403 69 14 9
-0.117992 -0.336794 -0.512022 73 14 7
-0.117005 -0.336235 -0.512637 73 14 7
-0.116019 -0.335676 -0.513249 73 14 7
-0.115034 -0.335116 -0.513858 72 13 6
-0.114049 -0.334557 -0.514464 73 12 6
-0.116234 -0.336074 -0.516561 73 12 6
-0.115250 -0.335515 -0.517167 73 12 6
-0.114266 -0.334956 -0.517769 73 12 6
-0.113282 -0.334397 -0.518368 77 11 7
-0.112300 -0.333839 -0.518964 78 12 8
-0.111317 -0.333280 -0.519557 80 11 8
-0.110336 -0.332722 -0.520146 82 13 10
-0.109355 -0.332164 -0.520733 83 14 9
-0.108375 -0.331606 -0.521316 88 19 14
-0.107395 -0.331048 -0.521895 92 24 16
-0.106417 -0.330490 -0.522472 95 27 19
-0.106227 -0.330451 -0.523437 95 30 19
-0.106037 -0.330411 -0.524402 97 32 21
-0.105848 -0.330372 -0.525366 94 34 21
-0.105658 -0.330332 -0.526331 92 32 19
-0.105469 -0.330293 -0.527296 91 31 18
-0.105279 -0.330253 -0.528261 92 32 19
-0.105090 -0.330214 -0.529226 90 30 17
-0.105687 -0.330692 -0.530594 85 25 12
-0.104710 -0.330135 -0.531156 93 30 20
-0.104521 -0.330095 -0.532121 93 30 20
-0.104331 -0.330055 -0.533085 94 29 20
-0.104142 -0.330016 -0.534050 94 29 20
-0.103952 -0.329976 -0.535015 93 28 19
-0.103763 -0.329937 -0.535980 93 28 19
-0.103573 -0.329897 -0.536945 92 27 18
-0.104168 -0.330375 -0.538325 90 25 16
-0.103978 -0.330335 -0.539292 90 25 16
-0.104571 -0.330813 -0.540677 91 26 17
-0.104381 -0.330773 -0.541646 93 25 17
-0.104973 -0.331250 -0.543036 92 24 16
-0.105565 -0.331727 -0.544430 92 24 16
-0.106156 -0.332204 -0.545826 92 24 16
-0.105965 -0.332164 -0.546799 91 20 13
-0.106556 -0.332641 -0.548201 92 21 14
-0.107145 -0.333118 -0.549606 92 21 14
-0.106953 -0.333078 -0.550582 91 20 13
-0.107542 -0.333554 -0.551992 92 21 14
-0.108130 -0.334030 -0.553405 91 20 13
-0.107938 -0.333990 -0.554384 91 20 13
-0.108525 -0.334466 -0.555802 91 20 13
-0.109111 -0.334942 -0.557223 91 20 13
-0.108918 -0.334902 -0.558206 89 18 11
-0.108725 -0.334862 -0.559188 89 18 11
-0.108532 -0.334821 -0.560171 88 17 10
-0.108339 -0.334781 -0.561154 89 18 11
-0.108924 -0.335257 -0.562584 89 18 11
-0.108730 -0.335216 -0.563569 89 18 11
-0.108537 -0.335176 -0.564553 87 16 9
-0.119994 -0.342870 -0.572332 83 14 9
-0.120572 -0.343344 -0.573795 85 16 11
-0.121149 -0.343818 -0.575261 89 17 13
-0.121726 -0.344292 -0.576731 89 17 13
-0.121527 -0.344250 -0.577744 90 17 13
-0.121328 -0.344209 -0.578757 90 17 13
-0.121904 -0.344683 -0.580234 86 22 17
-0.122479 -0.345156 -0.581713 93 29 24
-0.232382 -0.404039 -0.488172 95 76 74
-0.234588 -0.405556 -0.490175 112 72 73
-0.233541 -0.404985 -0.491092 108 68 69
-0.232495 -0.404415 -0.492006 103 66 63
-0.230638 -0.403324 -0.492641 102 65 62
-0.229593 -0.402754 -0.493547 100 63 58
-0.226926 -0.401141 -0.493889 98 61 56
-0.225072 -0.400051 -0.494504 97 62 57
-0.223220 -0.398960 -0.495112 96 61 56
-0.220558 -0.397349 -0.495429 121 97 85
-0.217898 -0.395738 -0.495736 134 110 98
-0.215240 -0.394128 -0.496034 126 109 95
-0.212584 -0.392518 -0.496321 128 111 97
-0.209121 -0.390388 -0.496308 83 48 43
-0.206469 -0.388778 -0.496575 90 55 50
-0.203819 -0.387170 -0.496832 95 54 46
-0.200362 -0.385041 -0.496783 94 53 45
-0.197716 -0.383433 -0.497019 95 52 43
-0.193457 -0.380784 -0.496646 93 50 41
-0.187586 -0.377096 -0.495655 93 50 41
-0.185755 -0.376010 -0.496155 93 50 41
-0.186345 -0.376485 -0.497561 95 50 39
-0.183709 -0.374879 -0.497747 94 49 38
-0.180269 -0.372754 -0.497616 93 48 37
-0.177637 -0.371149 -0.497781 94 49 38
-0.174201 -0.369024 -0.497625 95 48 35
-0.170768 -0.366900 -0.497456 96 49 36
-0.168948 -0.365816 -0.497903 95 48 35
-0.166324 -0.364213 -0.498027 94 47 34
-0.164506 -0.363130 -0.498460 96 49 36
-0.162689 -0.362047 -0.498885 97 50 37
-0.160874 -0.360964 -0.499304 98 50 35
-0.158256 -0.359362 -0.499395 102 54 39
-0.156444 -0.358280 -0.499799 100 52 37
-0.152225 -0.355640 -0.499221 97 49 34
-0.150416 -0.354559 -0.499608 95 50 37
-0.148608 -0.353478 -0.499989 87 42 29
-0.146801 -0.352397 -0.500362 82 41 31
-0.144996 -0.351316 -0.500730 82 41 31
-0.143192 -0.350236 -0.501091 81 43 34
-0.142190 -0.349675 -0.501780 80 42 33
-0.140389 -0.348595 -0.502130 108 83 74
-0.139388 -0.348035 -0.502812 127 102 93
-0.137589 -0.346955 -0.503150 115 101 86
-0.135790 -0.345876 -0.503482 120 106 91
-0.134792 -0.345316 -0.504150 89 62 54
-0.133795 -0.344756 -0.504816 63 36 28
-0.132799 -0.344196 -0.505478 75 36 32
-0.131005 -0.343118 -0.505789 69 30 26
-0.130010 -0.342558 -0.506443 111 85 74
-0.129015 -0.341999 -0.507094 118 92 81
-0.128021 -0.341440 -0.507741 110 96 79
-0.126231 -0.340362 -0.508031 108 94 77
-0.125239 -0.339803 -0.508670 119 100 85
-0.124248 -0.339245 -0.509307 45 26 11
-0.123257 -0.338686 -0.509940 59 20 16
-0.122267 -0.338127 -0.510569 58 19 15
-0.120482 -0.337051 -0.510833 70 15 10
-0.119493 -0.336493 -0.511455 69 14 9
-0.118505 -0.335935 -0.512074 73 14 7
-0.117518 -0.335377 -0.512689 73 14 7
-0.116531 -0.334819 -0.513301 73 14 7
-0.115545 -0.334261 -0.513910 72 13 6
-0.114559 -0.333704 -0.514515 73 12 6
-0.116747 -0.335216 -0.516613 73 12 6
-0.115761 -0.334659 -0.517219 73 12 6
-0.114776 -0.334101 -0.517821 73 12 6
-0.113792 -0.333544 -0.518420 77 11 7
-0.112809 -0.332987 -0.519016 77 11 7
-0.111826 -0.332430 -0.519608 80 11 8
-0.110843 -0.331873 -0.520198 81 12 9
-0.109862 -0.331316 -0.520784 82 13 8
-0.108881 -0.330759 -0.521367 87 18 13
-0.107900 -0.330203 -0.521946 91 20 13
-0.106920 -0.329647 -0.522523 94 23 16
-0.106731 -0.329607 -0.523488 95 24 15
-0.106541 -0.329568 -0.524453 95 24 15
-0.106352 -0.329528 -0.525418 93 25 15
-0.106162 -0.329488 -0.526382 93 25 15
-0.105973 -0.329449 -0.527347 92 24 14
-0.105783 -0.329409 -0.528312 92 24 14
-0.105594 -0.329370 -0.529277 92 24 14
-0.106191 -0.329847 -0.530645 89 21 11
-0.105214 -0.329291 -0.531207 93 25 15
-0.105025 -0.329251 -0.532172 93 25 15
-0.104835 -0.329212 -0.533136 94 23 14
-0.104646 -0.329172 -0.534101 95 24 15
-0.104456 -0.329133 -0.535066 94 23 14
-0.104267 -0.329093 -0.536031 94 23 14
-0.104077 -0.329054 -0.536996 92 21 12
-0.104672 -0.329530 -0.538377 91 20 11
-0.104482 -0.329490 -0.539343 91 20 11
-0.105077 -0.329966 -0.540729 92 21 12
-0.104887 -0.329927 -0.541697 91 20 11
-0.105480 -0.330402 -0.543087 91 20 11
-0.106073 -0.330878 -0.544481 91 20 13
-0.106665 -0.331353 -0.545878 91 20 13
-0.107256 -0.331829 -0.547278 90 19 12
-0.107065 -0.331789 -0.548253 91 20 13
-0.107655 -0.332264 -0.549657 90 19 12
-0.108245 -0.332739 -0.551066 90 19 12
-0.108834 -0.333214 -0.552477 90 19 12
-0.109423 -0.333689 -0.553892 90 19 12
-0.109230 -0.333649 -0.554873 89 18 11
-0.109818 -0.334123 -0.556292 89 18 11
-0.109625 -0.334083 -0.557275 88 17 10
-0.109432 -0.334043 -0.558258 88 17 10
-0.109239 -0.334002 -0.559240 88 17 10
-0.109825 -0.334477 -0.560668 87 16 9
-0.109631 -0.334436 -0.561652 87 15 11
-0.109438 -0.334396 -0.562636 88 16 12
-0.110023 -0.334870 -0.564071 86 17 12
-0.109829 -0.334830 -0.565056 83 14 9
-0.121298 -0.342502 -0.572838 82 13 8
-0.121877 -0.342975 -0.574303 83 14 9
-0.121678 -0.342933 -0.575315 89 17 13
-0.123032 -0.343920 -0.577242 89 17 13
-0.122833 -0.343878 -0.578257 90 17 13
-0.122633 -0.343837 -0.579272 90 17 13
-0.123210 -0.344309 -0.580750 84 22 19
-0.123010 -0.344267 -0.581767 94 32 29
-0.234630 -0.404043 -0.488776 96 77 75
-0.233583 -0.403474 -0.489693 111 71 72
-0.232536 -0.402905 -0.490608 108 68 69
-0.231489 -0.402336 -0.491519 104 67 62
-0.230443 -0.401768 -0.492426 103 66 61
-0.229398 -0.401199 -0.493331 101 64 59
-0.226729 -0.399591 -0.493671 100 63 58
-0.224874 -0.398504 -0.494284 98 63 58
-0.222209 -0.396896 -0.494607 97 62 57
-0.220356 -0.395809 -0.495206 122 101 88
-0.217694 -0.394203 -0.495511 128 107 94
-0.215034 -0.392597 -0.495807 123 109 92
-0.212376 -0.390991 -0.496092 128 114 97
-0.209719 -0.389386 -0.496368 93 64 54
-0.206255 -0.387261 -0.496342 87 58 48
-0.203603 -0.385657 -0.496597 94 56 47
-0.200952 -0.384053 -0.496842 93 55 46
-0.197495 -0.381930 -0.496780 95 54 44
-0.194040 -0.379808 -0.496705 95 54 44
-0.190588 -0.377686 -0.496617 94 53 43
-0.187138 -0.375565 -0.496516 92 51 41
-0.186922 -0.375520 -0.497620 95 50 39
-0.184283 -0.373918 -0.497805 94 49 38
-0.180839 -0.371798 -0.497673 93 48 37
-0.178205 -0.370197 -0.497838 94 49 38
-0.174766 -0.368079 -0.497682 94 49 36
-0.172136 -0.366479 -0.497826 94 49 36
-0.169507 -0.364879 -0.497960 95 48 35
-0.167686 -0.363798 -0.498400 95 48 35
-0.165061 -0.362200 -0.498516 96 49 36
-0.163243 -0.361120 -0.498941 96 49 36
-0.161426 -0.360040 -0.499360 97 48 36
-0.159610 -0.358960 -0.499773 101 52 40
-0.157795 -0.357881 -0.500179 100 52 37
-0.155982 -0.356802 -0.500578 97 49 34
-0.154170 -0.355723 -0.500971 101 55 39
-0.149148 -0.352573 -0.500043 93 47 31
-0.148142 -0.352013 -0.500747 87 42 29
-0.146335 -0.350935 -0.501116 85 40 27
-0.144529 -0.349858 -0.501479 84 41 34
-0.142725 -0.348781 -0.501835 85 42 35
-0.140921 -0.347704 -0.502184 86 56 49
-0.139920 -0.347144 -0.502865 105 75 68
-0.138919 -0.346585 -0.503544 119 105 90
-0.137119 -0.345509 -0.503877 122 108 93
-0.136120 -0.344950 -0.504547 74 47 39
-0.134322 -0.343874 -0.504869 64 37 29
-0.133325 -0.343316 -0.505531 75 36 32
-0.132328 -0.342757 -0.506190 71 32 28
-0.130533 -0.341682 -0.506496 118 97 84
-0.129538 -0.341124 -0.507146 115 94 81
-0.128543 -0.340566 -0.507794 112 98 81
-0.126751 -0.339492 -0.508084 108 94 77
-0.125758 -0.338934 -0.508723 114 93 78
-0.124766 -0.338377 -0.509359 42 21 6
-0.123774 -0.337820 -0.509992 59 20 16
-0.122783 -0.337263 -0.510622 59 20 16
-0.120997 -0.336189 -0.510886 70 15 10
-0.120007 -0.335632 -0.511507 69 14 9
-0.119018 -0.335076 -0.512126 73 14 7
-0.118030 -0.334519 -0.512741 73 14 7
-0.117042 -0.333963 -0.513353 74 13 7
-0.116055 -0.333406 -0.513961 73 12 6
-0.115069 -0.332850 -0.514567 73 12 6
-0.114083 -0.332294 -0.515169 73 12 6
-0.113098 -0.331738 -0.515768 73 12 6
-0.115287 -0.333246 -0.517873 73 12 6
-0.114302 -0.332690 -0.518472 77 11 7
-0.113318 -0.332135 -0.519067 77 11 7
-0.112334 -0.331579 -0.519660 80 11 8
-0.111351 -0.331023 -0.520249 81 12 9
-0.110368 -0.330468 -0.520835 84 12 8
-0.109386 -0.329913 -0.521418 88 16 12
-0.108405 -0.329358 -0.521998 89 18 11
-0.108215 -0.329318 -0.522964 90 19 12
-0.108025 -0.329279 -0.523931 91 20 11
-0.107835 -0.329239 -0.524897 92 21 12
-0.106856 -0.328684 -0.525469 91 20 11
-0.106666 -0.328645 -0.526433 91 20 11
-0.106477 -0.328605 -0.527398 91 20 11
-0.106287 -0.328566 -0.528363 90 19 10
-0.106097 -0.328526 -0.529328 91 20 11
-0.106696 -0.329001 -0.530696 90 19 10
-0.106506 -0.328962 -0.531662 92 21 12
-0.106316 -0.328922 -0.532629 91 20 11
-0.106126 -0.328883 -0.533595 93 21 12
-0.105937 -0.328843 -0.534562 93 21 12
-0.105747 -0.328804 -0.535528 92 20 11
-0.105557 -0.328764 -0.536495 93 21 12
-0.105367 -0.328724 -0.537461 92 20 11
-0.105963 -0.329199 -0.538844 91 19 10
-0.105773 -0.329159 -0.539812 91 19 10
-0.105582 -0.329120 -0.540780 91 19 10
-0.106177 -0.329594 -0.542169 91 19 12
-0.106771 -0.330068 -0.543561 90 18 11
-0.107364 -0.330543 -0.544956 90 18 11
-0.107957 -0.331017 -0.546355 91 19 12
-0.107765 -0.330977 -0.547329 90 18 11
-0.107574 -0.330937 -0.548304 90 18 11
-0.108165 -0.331411 -0.549709 88 17 10
-0.108756 -0.331884 -0.551117 88 17 10
-0.109346 -0.332358 -0.552529 89 18 11
-0.109935 -0.332831 -0.553944 88 17 10
-0.109742 -0.332791 -0.554925 87 16 9
-0.110331 -0.333264 -0.556344 88 17 10
-0.110138 -0.333224 -0.557327 88 17 10
-0.109945 -0.333183 -0.558310 87 16 9
-0.110532 -0.333656 -0.559736 87 16 9
-0.110339 -0.333616 -0.560720 85 14 7
-0.110145 -0.333576 -0.561704 85 13 9
-0.109952 -0.333535 -0.562689 87 15 11
-0.110537 -0.334008 -0.564123 85 16 11
-0.104893 -0.330378 -0.561948 83 14 9
-0.122604 -0.342131 -0.573345 81 12 7
-0.122405 -0.342090 -0.574357 82 13 8
-0.122984 -0.342561 -0.575825 86 17 12
-0.123562 -0.343032 -0.577296 87 18 13
-0.123363 -0.342991 -0.578311 90 17 13
-0.123940 -0.343462 -0.579787 91 18 14
-0.123740 -0.343420 -0.580804 82 24 22
-0.124317 -0.343891 -0.582285 93 35 33
-0.236300 -0.403570 -0.487918 132 111 110
-0.234436 -0.402484 -0.488568 97 76 75
-0.233388 -0.401916 -0.489484 112 72 73
-0.232341 -0.401349 -0.490397 109 69 70
-0.231294 -0.400782 -0.491306 107 68 64
-0.229434 -0.399696 -0.491935 104 65 61
-0.228388 -0.399129 -0.492836 102 65 60
-0.226531 -0.398044 -0.493453 101 64 59
-0.224674 -0.396959 -0.494064 99 64 59
-0.222006 -0.395356 -0.494386 99 64 59
-0.219340 -0.393754 -0.494697 126 105 92
-0.217488 -0.392670 -0.495286 124 103 90
-0.214826 -0.391068 -0.495579 101 87 72
-0.212977 -0.389985 -0.496153 124 110 95
-0.210318 -0.388384 -0.496429 103 82 69
-0.207661 -0.386783 -0.496695 111 90 77
-0.204195 -0.384665 -0.496657 93 57 47
-0.201542 -0.383065 -0.496902 93 57 47
-0.198891 -0.381466 -0.497138 96 55 45
-0.194624 -0.378831 -0.496764 96 55 45
-0.191977 -0.377233 -0.496977 96 53 44
-0.188524 -0.375117 -0.496877 93 50 41
-0.185073 -0.373002 -0.496764 93 51 39
-0.185665 -0.373475 -0.498169 92 50 38
-0.182218 -0.371360 -0.498039 93 48 37
-0.178773 -0.369246 -0.497896 94 49 38
-0.176138 -0.367650 -0.498050 94 49 38
-0.173505 -0.366055 -0.498195 94 49 38
-0.170873 -0.364459 -0.498331 95 48 35
-0.168244 -0.362864 -0.498456 95 48 35
-0.165617 -0.361270 -0.498572 95 48 35
-0.163796 -0.360193 -0.498997 96 49 36
-0.161978 -0.359116 -0.499416 97 48 36
-0.160160 -0.358039 -0.499828 100 51 39
-0.158344 -0.356962 -0.500234 100 52 37
-0.156529 -0.355886 -0.500634 97 49 34
-0.154715 -0.354810 -0.501027 102 56 38
-0.149688 -0.351669 -0.500098 96 50 32
-0.148682 -0.351110 -0.500802 93 47 31
-0.146873 -0.350035 -0.501171 88 42 26
-0.145065 -0.348960 -0.501533 88 40 32
-0.143259 -0.347886 -0.501889 88 40 32
-0.141454 -0.346812 -0.502238 79 45 37
-0.140452 -0.346254 -0.502919 84 50 42
-0.139450 -0.345696 -0.503597 91 73 62
-0.137648 -0.344623 -0.503931 119 101 90
-0.136648 -0.344065 -0.504601 68 41 33
-0.134849 -0.342992 -0.504922 67 40 32
-0.133850 -0.342435 -0.505584 76 37 33
-0.132853 -0.341878 -0.506243 74 35 31
-0.131056 -0.340806 -0.506549 124 103 90
-0.130060 -0.340249 -0.507199 117 96 83
-0.129065 -0.339693 -0.507847 112 95 79
-0.127271 -0.338621 -0.508136 114 97 81
-0.126278 -0.338065 -0.508776 103 82 67
-0.125284 -0.337509 -0.509412 37 16 1
-0.124292 -0.336953 -0.510044 61 20 14
-0.123300 -0.336398 -0.510674 61 20 14
-0.121512 -0.335327 -0.510938 70 15 10
-0.120521 -0.334772 -0.511559 69 14 9
-0.119532 -0.334216 -0.512178 74 15 8
-0.118542 -0.333661 -0.512793 73 14 7
-0.117554 -0.333106 -0.513404 74 13 7
-0.116566 -0.332551 -0.514013 73 12 6
-0.115579 -0.331997 -0.514618 73 12 6
-0.114592 -0.331442 -0.515221 73 12 6
-0.113607 -0.330888 -0.515819 73 12 6
-0.112621 -0.330333 -0.516415 73 12 6
-0.111637 -0.329779 -0.517008 77 11 7
-0.110653 -0.329225 -0.517597 77 11 7
-0.109669 -0.328671 -0.518183 80 11 8
-0.111858 -0.330174 -0.520300 81 12 9
-0.110875 -0.329620 -0.520886 84 12 8
-0.109892 -0.329066 -0.521469 87 15 11
-0.109702 -0.329027 -0.522437 88 17 10
-0.109512 -0.328987 -0.523405 89 18 11
-0.109321 -0.328947 -0.524373 90 19 10
-0.109131 -0.328908 -0.525342 90 19 10
-0.108150 -0.328354 -0.525915 91 19 10
-0.107960 -0.328315 -0.526881 90 18 9
-0.107771 -0.328275 -0.527848 90 18 9
-0.107581 -0.328236 -0.528814 91 19 10
-0.107391 -0.328196 -0.529781 91 19 10
-0.107990 -0.328670 -0.531150 90 18 9
-0.107800 -0.328630 -0.532118 91 19 10
-0.107610 -0.328590 -0.533086 91 19 10
-0.107419 -0.328551 -0.534054 92 20 11
-0.107229 -0.328511 -0.535022 91 19 10
-0.107039 -0.328471 -0.535991 90 18 9
-0.106849 -0.328432 -0.536959 90 18 9
-0.106659 -0.328392 -0.537927 91 19 10
-0.107255 -0.328865 -0.539311 90 18 9
-0.107064 -0.328826 -0.540281 90 18 9
-0.106874 -0.328786 -0.541250 90 18 9
-0.107469 -0.329259 -0.542641 90 18 11
-0.107278 -0.329219 -0.543612 89 17 10
-0.107872 -0.329692 -0.545008 89 17 10
-0.108466 -0.330164 -0.546406 90 18 11
-0.109058 -0.330637 -0.547808 89 17 10
-0.108867 -0.330597 -0.548785 89 17 10
-0.109458 -0.331069 -0.550191 89 17 10
-0.110050 -0.331541 -0.551601 88 16 9
-0.110640 -0.332013 -0.553015 88 17 10
-0.111230 -0.332485 -0.554431 88 17 10
-0.111037 -0.332445 -0.555414 87 16 9
-0.111626 -0.332917 -0.556835 87 16 9
-0.111433 -0.332876 -0.557819 88 17 10
-0.111239 -0.332836 -0.558804 87 16 9
-0.111046 -0.332796 -0.559788 85 14 7
-0.111633 -0.333267 -0.561217 85 14 7
-0.111440 -0.333227 -0.562203 85 13 9
-0.111246 -0.333186 -0.563189 85 13 9
-0.111832 -0.333657 -0.564625 83 14 9
-0.106182 -0.330037 -0.562451 83 14 9
-0.105211 -0.329486 -0.562974 79 13 7
-0.105019 -0.329446 -0.563949 81 15 9
-0.124671 -0.342614 -0.578824 90 17 13
-0.390105 -0.517278 -0.739179 82 29 25
-0.236106 -0.402011 -0.487712 124 103 102
