ply
format ascii 1.0
element vertex 1226
property float x
property float y
property float z
property uchar red
property uchar green
property uchar blue
end_header
-0.239273 -0.293019 -0.504316 87 28 19
-0.239027 -0.293043 -0.503529 88 29 20
-0.238781 -0.293066 -0.502743 86 29 22
-0.238536 -0.293089 -0.501956 86 29 22
-0.238290 -0.293112 -0.501170 83 28 23
-0.238044 -0.293135 -0.500384 84 29 24
-0.236904 -0.293677 -0.499616 84 29 24
-0.236658 -0.293700 -0.498828 83 28 23
-0.236412 -0.293723 -0.498040 82 27 22
-0.236165 -0.293746 -0.497252 82 27 22
-0.235919 -0.293770 -0.496464 84 27 20
-0.235673 -0.293793 -0.495676 81 24 17
-0.235427 -0.293816 -0.494888 86 27 20
-0.235181 -0.293839 -0.494100 87 28 21
-0.234934 -0.293862 -0.493312 84 25 18
-0.238283 -0.291810 -0.492506 86 27 20
-0.238039 -0.291833 -0.491724 84 26 22
-0.237795 -0.291856 -0.490943 84 26 22
-0.237551 -0.291879 -0.490161 82 24 20
-0.236406 -0.292421 -0.489378 82 24 20
-0.236161 -0.292444 -0.488594 87 27 23
-0.235916 -0.292467 -0.487811 88 28 24
-0.235671 -0.292490 -0.487028 84 26 22
-0.235427 -0.292513 -0.486245 82 24 20
-0.235182 -0.292537 -0.485462 79 26 22
-0.234937 -0.292560 -0.484678 77 24 20
-0.233788 -0.293102 -0.483882 78 25 21
-0.233543 -0.293125 -0.483098 77 24 20
-0.232392 -0.293668 -0.482297 81 21 19
-0.232147 -0.293691 -0.481511 84 24 22
-0.230995 -0.294234 -0.480705 90 25 25
-0.228935 -0.295296 -0.479876 93 28 28
-0.226874 -0.296359 -0.479041 85 30 36
-0.224810 -0.297422 -0.478199 110 55 61
-0.245684 -0.293410 -0.537845 104 55 54
-0.245436 -0.293433 -0.537052 79 30 29
-0.245188 -0.293457 -0.536259 94 25 22
-0.244941 -0.293480 -0.535467 93 24 21
-0.244693 -0.293503 -0.534674 99 23 20
-0.244445 -0.293527 -0.533881 99 23 20
-0.244198 -0.293550 -0.533089 100 25 17
-0.243950 -0.293573 -0.532296 100 25 17
-0.243702 -0.293597 -0.531503 101 24 17
-0.243455 -0.293620 -0.530711 101 24 17
-0.243207 -0.293643 -0.529918 102 25 18
-0.242959 -0.293667 -0.529125 101 24 17
-0.242711 -0.293690 -0.528333 100 23 14
-0.242464 -0.293713 -0.527540 100 23 14
-0.243095 -0.293221 -0.526675 99 24 14
-0.241968 -0.293760 -0.525955 100 25 15
-0.242600 -0.293268 -0.525093 100 25 15
-0.242353 -0.293291 -0.524302 100 25 15
-0.242106 -0.293314 -0.523511 97 25 14
-0.241859 -0.293338 -0.522719 97 25 14
-0.241611 -0.293361 -0.521928 97 25 14
-0.241364 -0.293384 -0.521137 97 25 14
-0.241999 -0.292892 -0.520286 97 25 14
-0.241753 -0.292915 -0.519497 97 25 14
-0.241506 -0.292938 -0.518707 97 26 15
-0.241259 -0.292961 -0.517918 96 25 14
-0.241013 -0.292985 -0.517128 94 26 14
-0.241651 -0.292492 -0.516287 94 26 14
-0.240519 -0.293031 -0.515549 94 26 14
-0.240272 -0.293054 -0.514760 93 25 13
-0.240026 -0.293078 -0.513970 93 25 15
-0.239779 -0.293101 -0.513180 92 24 14
-0.239532 -0.293124 -0.512391 93 25 17
-0.239286 -0.293147 -0.511601 95 27 19
-0.239039 -0.293171 -0.510812 95 27 17
-0.238792 -0.293194 -0.510022 96 28 18
-0.238545 -0.293217 -0.509233 94 29 16
-0.239189 -0.292724 -0.508407 93 28 15
-0.238942 -0.292747 -0.507619 92 29 15
-0.238696 -0.292770 -0.506831 91 28 14
-0.238450 -0.292793 -0.506043 89 26 14
-0.238204 -0.292817 -0.505255 89 26 14
-0.237957 -0.292840 -0.504467 91 28 18
-0.237711 -0.292863 -0.503679 91 28 18
-0.238358 -0.292369 -0.502866 89 28 20
-0.237219 -0.292909 -0.502103 90 29 21
-0.236973 -0.292933 -0.501315 90 31 22
-0.236726 -0.292956 -0.500527 89 30 21
-0.235585 -0.293496 -0.499759 89 30 21
-0.236234 -0.293002 -0.498952 88 29 20
-0.235988 -0.293025 -0.498164 89 31 19
-0.234845 -0.293566 -0.497390 90 32 20
-0.234598 -0.293589 -0.496600 90 30 19
-0.234351 -0.293612 -0.495811 89 29 18
-0.234105 -0.293636 -0.495021 92 29 17
-0.233858 -0.293659 -0.494232 91 28 16
-0.233611 -0.293682 -0.493442 90 27 17
-0.236963 -0.291635 -0.492633 91 28 18
-0.236718 -0.291658 -0.491850 91 31 20
-0.236474 -0.291681 -0.491067 94 34 23
-0.236229 -0.291704 -0.490284 94 34 21
-0.235083 -0.292245 -0.489499 95 35 22
-0.234837 -0.292268 -0.488714 95 35 22
-0.234592 -0.292291 -0.487929 96 36 23
-0.234347 -0.292315 -0.487145 97 37 24
-0.234102 -0.292338 -0.486360 96 36 23
-0.233856 -0.292361 -0.485575 94 36 22
-0.234516 -0.291866 -0.484801 93 35 21
-0.232461 -0.292925 -0.483993 92 36 22
-0.231310 -0.293466 -0.483192 91 35 21
-0.231063 -0.293489 -0.482405 87 28 19
-0.229911 -0.294031 -0.481599 86 27 18
-0.229664 -0.294054 -0.480810 90 25 23
-0.227602 -0.295114 -0.479980 94 29 27
-0.225539 -0.296174 -0.479143 83 31 38
-0.223473 -0.297234 -0.478300 116 64 71
-0.244385 -0.293221 -0.538064 101 50 50
-0.244137 -0.293245 -0.537270 82 31 31
-0.243888 -0.293268 -0.536475 96 24 22
-0.244514 -0.292778 -0.535591 95 23 21
-0.244266 -0.292801 -0.534798 98 22 19
-0.244019 -0.292825 -0.534006 98 22 19
-0.243771 -0.292848 -0.533213 100 23 18
-0.243523 -0.292871 -0.532420 101 24 19
-0.243276 -0.292895 -0.531628 101 24 17
-0.243028 -0.292918 -0.530835 100 23 16
-0.242780 -0.292941 -0.530042 101 24 17
-0.242533 -0.292965 -0.529250 100 23 16
-0.242285 -0.292988 -0.528457 99 22 15
-0.242037 -0.293011 -0.527664 100 23 16
-0.241790 -0.293035 -0.526872 100 23 14
-0.241542 -0.293058 -0.526079 100 23 14
-0.242175 -0.292567 -0.525217 100 23 14
-0.241927 -0.292590 -0.524426 99 22 13
-0.241680 -0.292614 -0.523635 97 22 12
-0.241433 -0.292637 -0.522843 97 22 12
-0.241186 -0.292660 -0.522052 97 22 12
-0.240939 -0.292684 -0.521261 97 22 12
-0.241575 -0.292192 -0.520410 97 22 12
-0.241328 -0.292216 -0.519620 95 20 10
-0.241081 -0.292239 -0.518831 93 21 10
-0.240834 -0.292262 -0.518041 95 23 12
-0.240588 -0.292285 -0.517252 95 23 14
-0.240341 -0.292309 -0.516462 95 23 14
-0.240094 -0.292332 -0.515673 95 23 14
-0.239848 -0.292355 -0.514883 93 21 12
-0.239601 -0.292378 -0.514094 93 21 12
-0.239354 -0.292402 -0.513304 92 20 11
-0.238219 -0.292940 -0.512559 93 21 12
-0.238861 -0.292448 -0.511725 95 23 14
-0.238614 -0.292471 -0.510936 93 21 12
-0.238367 -0.292495 -0.510146 95 23 14
-0.238121 -0.292518 -0.509357 94 23 12
-0.238765 -0.292026 -0.508531 94 23 12
-0.238518 -0.292049 -0.507743 92 24 12
-0.238272 -0.292072 -0.506955 90 22 10
-0.238026 -0.292095 -0.506167 90 22 12
-0.237780 -0.292119 -0.505379 90 22 12
-0.237534 -0.292142 -0.504591 90 22 12
-0.237287 -0.292165 -0.503803 92 24 14
-0.237935 -0.291673 -0.502989 90 25 16
-0.236795 -0.292212 -0.502227 90 25 16
-0.236549 -0.292235 -0.501439 91 26 17
-0.236302 -0.292258 -0.500651 91 26 17
-0.235160 -0.292797 -0.499882 90 25 16
-0.234913 -0.292820 -0.499093 88 23 14
-0.234667 -0.292843 -0.498303 91 26 17
-0.234420 -0.292867 -0.497514 91 26 17
-0.234173 -0.292890 -0.496724 91 26 15
-0.233927 -0.292913 -0.495935 91 26 15
-0.233680 -0.292936 -0.495145 94 26 16
-0.233433 -0.292960 -0.494356 93 25 15
-0.233186 -0.292983 -0.493566 92 24 14
-0.235641 -0.291458 -0.492761 92 24 14
-0.235396 -0.291481 -0.491976 93 25 15
-0.235151 -0.291504 -0.491192 94 26 16
-0.234905 -0.291527 -0.490407 95 27 17
-0.233758 -0.292066 -0.489621 95 27 17
-0.233512 -0.292090 -0.488834 94 26 16
-0.233266 -0.292113 -0.488048 95 27 17
-0.233021 -0.292136 -0.487262 97 29 17
-0.232775 -0.292159 -0.486475 96 28 16
-0.232529 -0.292182 -0.485689 94 30 14
-0.233189 -0.291689 -0.484913 94 30 14
-0.230226 -0.293262 -0.484092 96 34 17
-0.229979 -0.293285 -0.483302 96 34 17
-0.228826 -0.293825 -0.482497 91 28 16
-0.228578 -0.293848 -0.481706 91 28 16
-0.228331 -0.293872 -0.480915 91 27 22
-0.226267 -0.294929 -0.480084 94 30 25
-0.224202 -0.295986 -0.479246 81 31 37
-0.222134 -0.297043 -0.478402 131 81 87
-0.243957 -0.292518 -0.538188 95 44 44
-0.243709 -0.292541 -0.537394 84 33 33
-0.243461 -0.292565 -0.536600 96 24 22
-0.243213 -0.292588 -0.535806 95 23 21
-0.242965 -0.292611 -0.535011 98 22 19
-0.242717 -0.292635 -0.534217 98 22 19
-0.242468 -0.292658 -0.533423 100 23 18
-0.242220 -0.292682 -0.532629 99 22 17
-0.241972 -0.292705 -0.531834 100 23 18
-0.241724 -0.292728 -0.531040 100 23 18
-0.241476 -0.292752 -0.530246 100 23 16
-0.241227 -0.292775 -0.529452 99 22 15
-0.240979 -0.292798 -0.528657 99 22 15
-0.240731 -0.292822 -0.527863 99 22 15
-0.241363 -0.292333 -0.526996 99 22 15
-0.240235 -0.292869 -0.526275 99 22 15
-0.240868 -0.292379 -0.525411 98 21 14
-0.240620 -0.292403 -0.524618 99 22 15
-0.240372 -0.292426 -0.523825 98 21 14
-0.240125 -0.292449 -0.523033 96 19 12
-0.239877 -0.292473 -0.522240 95 20 12
-0.240513 -0.291983 -0.521385 94 19 11
-0.240266 -0.292006 -0.520594 95 20 12
-0.240018 -0.292029 -0.519803 94 19 11
-0.239771 -0.292053 -0.519012 94 19 11
-0.240410 -0.291563 -0.518165 94 19 11
-0.240163 -0.291586 -0.517376 94 19 11
-0.239916 -0.291609 -0.516586 94 19 11
-0.238782 -0.292146 -0.515848 94 19 11
-0.238535 -0.292169 -0.515056 93 18 10
-0.238288 -0.292193 -0.514265 94 19 11
-0.238041 -0.292216 -0.513474 93 18 10
-0.237794 -0.292239 -0.512683 94 19 11
-0.237546 -0.292262 -0.511892 95 20 12
-0.237299 -0.292286 -0.511101 94 19 11
-0.237943 -0.291795 -0.510270 94 19 11
-0.237696 -0.291819 -0.509480 92 20 11
-0.237449 -0.291842 -0.508691 92 20 11
-0.237202 -0.291865 -0.507901 91 20 11
-0.236956 -0.291888 -0.507112 91 20 11
-0.236709 -0.291912 -0.506322 90 19 10
-0.236462 -0.291935 -0.505533 90 19 10
-0.236216 -0.291958 -0.504743 91 20 11
-0.236863 -0.291467 -0.503926 91 20 11
-0.236617 -0.291490 -0.503138 91 20 13
-0.235475 -0.292028 -0.502375 92 21 14
-0.235229 -0.292051 -0.501585 92 21 14
-0.234982 -0.292074 -0.500796 91 20 13
-0.234735 -0.292098 -0.500006 91 20 13
-0.234489 -0.292121 -0.499216 91 20 13
-0.234242 -0.292144 -0.498427 91 20 13
-0.233097 -0.292682 -0.497652 92 21 14
-0.232850 -0.292705 -0.496861 92 21 12
-0.232602 -0.292728 -0.496070 92 21 12
-0.232355 -0.292752 -0.495279 94 23 14
-0.232108 -0.292775 -0.494488 92 21 12
-0.231861 -0.292798 -0.493697 92 21 12
-0.231614 -0.292821 -0.492906 91 20 11
-0.232268 -0.292330 -0.492111 92 21 12
-0.234728 -0.290809 -0.491315 92 21 12
-0.233580 -0.291347 -0.490530 94 23 14
-0.233335 -0.291370 -0.489744 92 21 12
-0.233089 -0.291393 -0.488958 91 20 11
-0.232843 -0.291416 -0.488171 92 21 12
-0.231693 -0.291954 -0.487379 95 24 15
-0.232352 -0.291463 -0.486599 95 24 15
-0.230295 -0.292516 -0.485795 95 24 13
-0.229142 -0.293054 -0.484995 95 24 13
-0.228894 -0.293078 -0.484204 94 26 14
-0.227740 -0.293616 -0.483399 94 26 14
-0.227492 -0.293640 -0.482606 93 25 15
-0.228153 -0.293148 -0.481830 93 25 15
-0.227906 -0.293171 -0.481039 92 26 22
-0.224931 -0.294741 -0.480189 97 31 27
-0.222863 -0.295795 -0.479350 79 31 37
-0.220793 -0.296850 -0.478505 136 88 94
-0.243530 -0.291814 -0.538313 96 45 45
-0.243282 -0.291838 -0.537519 84 33 33
-0.243034 -0.291861 -0.536724 96 24 22
-0.242786 -0.291885 -0.535930 94 22 20
-0.242537 -0.291908 -0.535136 98 22 19
-0.242289 -0.291931 -0.534342 97 21 18
-0.242041 -0.291955 -0.533547 99 22 17
-0.241793 -0.291978 -0.532753 99 22 17
-0.241545 -0.292002 -0.531959 100 23 18
-0.241296 -0.292025 -0.531165 99 22 17
-0.241048 -0.292048 -0.530370 99 22 15
-0.240800 -0.292072 -0.529576 99 22 15
-0.240552 -0.292095 -0.528782 98 21 14
-0.240304 -0.292118 -0.527988 98 21 14
-0.240937 -0.291631 -0.527120 98 21 14
-0.239807 -0.292165 -0.526399 98 21 14
-0.240441 -0.291677 -0.525535 98 21 14
-0.240194 -0.291701 -0.524742 98 21 14
-0.239946 -0.291724 -0.523949 96 19 12
-0.239698 -0.291747 -0.523157 96 19 12
-0.239450 -0.291771 -0.522364 95 18 11
-0.239203 -0.291794 -0.521571 95 18 11
-0.239840 -0.291306 -0.520718 95 18 11
-0.239593 -0.291329 -0.519927 95 18 11
-0.239346 -0.291352 -0.519136 94 19 11
-0.239098 -0.291375 -0.518345 93 18 10
-0.238851 -0.291399 -0.517554 93 18 10
-0.238604 -0.291422 -0.516763 93 18 10
-0.238357 -0.291445 -0.515971 93 18 10
-0.238110 -0.291469 -0.515180 92 17 9
-0.237862 -0.291492 -0.514389 93 18 10
-0.237615 -0.291515 -0.513598 93 18 10
-0.237368 -0.291538 -0.512807 93 18 10
-0.237121 -0.291562 -0.512016 93 18 10
-0.236874 -0.291585 -0.511225 92 17 9
-0.236626 -0.291608 -0.510434 93 18 10
-0.237271 -0.291119 -0.509604 92 17 9
-0.237024 -0.291143 -0.508815 93 18 10
-0.236778 -0.291166 -0.508025 91 19 10
-0.236531 -0.291189 -0.507236 91 19 10
-0.236284 -0.291212 -0.506446 89 18 9
-0.236038 -0.291236 -0.505656 89 18 9
-0.235791 -0.291259 -0.504867 91 20 11
-0.235544 -0.291282 -0.504077 91 20 11
-0.235297 -0.291305 -0.503288 90 19 12
-0.235051 -0.291329 -0.502498 90 19 12
-0.234804 -0.291352 -0.501709 90 19 12
-0.233660 -0.291888 -0.500941 91 20 13
-0.233413 -0.291911 -0.500149 90 19 12
-0.233166 -0.291934 -0.499358 90 19 12
-0.232918 -0.291958 -0.498567 89 18 11
-0.232671 -0.291981 -0.497776 90 19 12
-0.232424 -0.292004 -0.496985 90 19 12
-0.232177 -0.292028 -0.496194 90 19 12
-0.231930 -0.292051 -0.495403 91 20 13
-0.231682 -0.292074 -0.494612 91 20 13
-0.231435 -0.292098 -0.493821 90 19 12
-0.231188 -0.292121 -0.493030 90 19 12
-0.230941 -0.292144 -0.492238 91 20 13
-0.233403 -0.290627 -0.491440 90 19 12
-0.232254 -0.291164 -0.490655 91 20 13
-0.232007 -0.291187 -0.489867 90 19 12
-0.231761 -0.291210 -0.489079 90 19 12
-0.230610 -0.291747 -0.488287 90 19 12
-0.229458 -0.292284 -0.487492 92 21 12
-0.231023 -0.291280 -0.486715 91 20 11
-0.228963 -0.292330 -0.485910 91 20 11
-0.227809 -0.292868 -0.485108 92 21 12
-0.226654 -0.293405 -0.484304 94 23 14
-0.226405 -0.293428 -0.483510 94 23 14
-0.225249 -0.293965 -0.482701 92 24 16
-0.226818 -0.292961 -0.481938 93 25 17
-0.224751 -0.294012 -0.481109 93 26 25
-0.223593 -0.294550 -0.480294 99 32 31
-0.221522 -0.295601 -0.479454 84 39 44
-0.242228 -0.291620 -0.538533 88 37 37
-0.241979 -0.291644 -0.537737 84 33 33
-0.241730 -0.291667 -0.536941 95 23 21
-0.241482 -0.291691 -0.536145 94 22 20
-0.241233 -0.291714 -0.535349 99 21 19
-0.240984 -0.291737 -0.534554 98 20 18
-0.240736 -0.291761 -0.533758 99 22 17
-0.240487 -0.291784 -0.532962 99 22 17
-0.240238 -0.291808 -0.532166 99 22 17
-0.239990 -0.291831 -0.531370 99 22 17
-0.239741 -0.291855 -0.530575 98 21 16
-0.239492 -0.291878 -0.529779 98 21 16
-0.239244 -0.291901 -0.528983 98 21 14
-0.239876 -0.291415 -0.528112 98 21 14
-0.239628 -0.291438 -0.527318 96 19 12
-0.239380 -0.291462 -0.526524 98 21 14
-0.239132 -0.291485 -0.525729 96 19 12
-0.238884 -0.291509 -0.524935 98 21 14
-0.238635 -0.291532 -0.524141 95 18 11
-0.239272 -0.291045 -0.523281 95 18 11
-0.239024 -0.291069 -0.522488 95 18 11
-0.238776 -0.291092 -0.521696 94 17 10
-0.239414 -0.290605 -0.520842 94 17 10
-0.239167 -0.290628 -0.520051 94 17 10
-0.238920 -0.290651 -0.519260 93 18 10
-0.238673 -0.290675 -0.518469 93 18 10
-0.238426 -0.290698 -0.517678 93 18 10
-0.238178 -0.290721 -0.516887 92 17 9
-0.237042 -0.291255 -0.516147 92 17 9
-0.236795 -0.291279 -0.515354 92 17 9
-0.236547 -0.291302 -0.514562 92 17 9
-0.236299 -0.291325 -0.513769 92 17 9
-0.236942 -0.290838 -0.512931 92 17 9
-0.236695 -0.290861 -0.512140 92 17 9
-0.236448 -0.290884 -0.511349 92 17 9
-0.236201 -0.290908 -0.510558 92 17 9
-0.236846 -0.290420 -0.509728 92 17 9
-0.236600 -0.290443 -0.508938 92 17 9
-0.236353 -0.290467 -0.508149 91 19 10
-0.236106 -0.290490 -0.507359 90 18 9
-0.235859 -0.290513 -0.506570 90 18 9
-0.235613 -0.290536 -0.505780 89 17 8
-0.235366 -0.290560 -0.504991 90 19 10
-0.235119 -0.290583 -0.504201 89 18 9
-0.234873 -0.290606 -0.503412 89 18 11
-0.234626 -0.290629 -0.502622 90 19 12
-0.234379 -0.290653 -0.501833 89 18 11
-0.233234 -0.291187 -0.501065 90 19 12
-0.232987 -0.291211 -0.500273 89 18 11
-0.232740 -0.291234 -0.499482 89 18 11
-0.232493 -0.291257 -0.498691 88 17 10
-0.232246 -0.291280 -0.497900 89 18 11
-0.231998 -0.291304 -0.497109 89 18 11
-0.231751 -0.291327 -0.496318 89 18 11
-0.231504 -0.291350 -0.495527 90 19 12
-0.231257 -0.291374 -0.494736 89 18 11
-0.231010 -0.291397 -0.493945 90 19 12
-0.230762 -0.291420 -0.493154 90 19 12
-0.230515 -0.291443 -0.492362 89 18 11
-0.232076 -0.290443 -0.491566 89 18 11
-0.231830 -0.290466 -0.490778 89 18 11
-0.230679 -0.291001 -0.489990 88 17 10
-0.229526 -0.291537 -0.489198 88 17 10
-0.229279 -0.291560 -0.488407 89 18 11
-0.229032 -0.291583 -0.487616 91 20 13
-0.231506 -0.290070 -0.486845 90 19 12
-0.227630 -0.292142 -0.486025 90 19 12
-0.226475 -0.292678 -0.485223 90 19 12
-0.225318 -0.293214 -0.484417 92 21 14
-0.224160 -0.293750 -0.483608 91 20 13
-0.223911 -0.293773 -0.482811 92 23 18
-0.225482 -0.292771 -0.482046 93 24 19
-0.223413 -0.293820 -0.481216 93 26 25
-0.222253 -0.294356 -0.480399 98 31 30
-0.220180 -0.295405 -0.479559 87 44 50
-0.240924 -0.291423 -0.538753 86 32 33
-0.240675 -0.291447 -0.537956 86 32 33
-0.240425 -0.291470 -0.537158 96 24 22
-0.240176 -0.291494 -0.536361 95 23 21
-0.239927 -0.291517 -0.535564 98 23 17
-0.239678 -0.291541 -0.534766 98 23 17
-0.240308 -0.291056 -0.533883 98 23 17
-0.240059 -0.291079 -0.533087 98 23 17
-0.239810 -0.291103 -0.532291 99 22 17
-0.239562 -0.291126 -0.531495 99 22 17
-0.239313 -0.291150 -0.530699 98 21 16
-0.239064 -0.291173 -0.529903 98 21 16
-0.238815 -0.291197 -0.529108 98 21 14
-0.238567 -0.291220 -0.528312 98 21 14
-0.238318 -0.291244 -0.527516 98 21 14
-0.238069 -0.291267 -0.526720 98 21 14
-0.238705 -0.290782 -0.525854 98 21 14
-0.238456 -0.290805 -0.525060 98 21 14
-0.238208 -0.290829 -0.524265 95 18 11
-0.237960 -0.290852 -0.523471 95 18 11
-0.237712 -0.290875 -0.522677 94 17 10
-0.237464 -0.290899 -0.521883 94 17 10
-0.238102 -0.290413 -0.521027 94 17 10
-0.237854 -0.290436 -0.520235 93 16 9
-0.237607 -0.290460 -0.519442 93 16 9
-0.238247 -0.289974 -0.518593 93 16 9
-0.237111 -0.290507 -0.517857 92 17 9
-0.236864 -0.290530 -0.517064 92 17 9
-0.236616 -0.290553 -0.516271 92 17 9
-0.236368 -0.290577 -0.515478 91 16 8
-0.236121 -0.290600 -0.514686 91 16 8
-0.236764 -0.290114 -0.513846 91 16 8
-0.236517 -0.290137 -0.513055 92 17 9
-0.236270 -0.290160 -0.512264 91 16 8
-0.236022 -0.290184 -0.511473 91 16 8
-0.235775 -0.290207 -0.510682 91 16 8
-0.235528 -0.290230 -0.509891 91 16 8
-0.235281 -0.290254 -0.509100 91 16 8
-0.235034 -0.290277 -0.508308 89 17 10
-0.234786 -0.290300 -0.507517 89 17 10
-0.234539 -0.290324 -0.506726 89 17 10
-0.235188 -0.289837 -0.505904 89 17 10
-0.234045 -0.290370 -0.505144 89 18 11
-0.233798 -0.290393 -0.504353 89 18 11
-0.233550 -0.290417 -0.503562 89 18 11
-0.233303 -0.290440 -0.502771 89 18 11
-0.233056 -0.290463 -0.501980 89 18 11
-0.232809 -0.290487 -0.501189 89 18 11
-0.231662 -0.291020 -0.500418 88 17 10
-0.231414 -0.291043 -0.499625 88 17 10
-0.231167 -0.291067 -0.498832 87 16 9
-0.230919 -0.291090 -0.498040 89 18 11
-0.230671 -0.291113 -0.497247 88 17 10
-0.230424 -0.291137 -0.496454 88 17 10
-0.230176 -0.291160 -0.495662 89 18 11
-0.229928 -0.291183 -0.494869 88 17 10
-0.229681 -0.291207 -0.494076 88 17 10
-0.229433 -0.291230 -0.493284 88 17 10
-0.229185 -0.291253 -0.492491 88 17 10
-0.230747 -0.290256 -0.491692 88 17 10
-0.230500 -0.290279 -0.490903 88 17 10
-0.229348 -0.290813 -0.490113 87 16 9
-0.228194 -0.291347 -0.489320 87 16 9
-0.227040 -0.291881 -0.488524 88 17 10
-0.226792 -0.291904 -0.487730 89 18 11
-0.224728 -0.292950 -0.486923 88 17 10
-0.225387 -0.292462 -0.486133 86 18 10
-0.224230 -0.292996 -0.485328 87 19 11
-0.223071 -0.293531 -0.484519 88 19 14
-0.222822 -0.293555 -0.483720 89 20 15
-0.222572 -0.293578 -0.482921 92 23 18
-0.225054 -0.292068 -0.482170 94 25 20
-0.222984 -0.293114 -0.481341 94 27 30
-0.220911 -0.294160 -0.480505 98 31 34
-0.218837 -0.295206 -0.479664 95 55 60
-0.240495 -0.290717 -0.538878 86 32 33
-0.240246 -0.290741 -0.538081 86 32 33
-0.239996 -0.290764 -0.537283 97 25 23
-0.239747 -0.290788 -0.536486 95 23 21
-0.239498 -0.290811 -0.535689 98 23 17
-0.239249 -0.290835 -0.534891 98 23 17
-0.239000 -0.290858 -0.534094 98 23 17
-0.238751 -0.290881 -0.533296 98 23 17
-0.239382 -0.290398 -0.532416 99 22 17
-0.239133 -0.290422 -0.531620 99 22 17
-0.238885 -0.290445 -0.530824 98 21 16
-0.238636 -0.290468 -0.530028 98 21 16
-0.238387 -0.290492 -0.529232 98 21 16
-0.238139 -0.290515 -0.528437 98 21 16
-0.237890 -0.290539 -0.527641 98 21 14
-0.237641 -0.290562 -0.526845 98 21 14
-0.238277 -0.290078 -0.525978 97 22 14
-0.238029 -0.290102 -0.525184 95 20 12
-0.237781 -0.290125 -0.524390 94 19 11
-0.237533 -0.290148 -0.523596 93 18 10
-0.237284 -0.290172 -0.522801 93 18 10
-0.237036 -0.290195 -0.522007 92 17 9
-0.237676 -0.289711 -0.521151 92 17 9
-0.237428 -0.289734 -0.520359 92 17 9
-0.237180 -0.289758 -0.519566 92 17 9
-0.236933 -0.289781 -0.518773 92 17 9
-0.236685 -0.289804 -0.517981 92 17 9
-0.236437 -0.289828 -0.517188 91 16 8
-0.236189 -0.289851 -0.516395 91 16 8
-0.235942 -0.289875 -0.515603 91 16 8
-0.235694 -0.289898 -0.514810 91 16 8
-0.236338 -0.289413 -0.513970 91 16 8
-0.236091 -0.289437 -0.513179 91 16 8
-0.235844 -0.289460 -0.512388 90 15 7
-0.235597 -0.289483 -0.511597 90 15 7
-0.235349 -0.289506 -0.510806 91 16 8
-0.235102 -0.289530 -0.510015 88 16 7
-0.234855 -0.289553 -0.509224 88 16 7
-0.234608 -0.289576 -0.508432 88 16 9
-0.234361 -0.289600 -0.507641 88 16 9
-0.234113 -0.289623 -0.506850 88 16 9
-0.233866 -0.289646 -0.506059 89 17 10
-0.233619 -0.289669 -0.505268 89 17 10
-0.233372 -0.289693 -0.504477 89 17 10
-0.233125 -0.289716 -0.503686 88 17 10
-0.232877 -0.289739 -0.502895 88 17 10
-0.232630 -0.289763 -0.502104 88 17 10
-0.231483 -0.290295 -0.501335 88 17 10
-0.231236 -0.290318 -0.500542 88 17 10
-0.230988 -0.290341 -0.499749 88 17 10
-0.230740 -0.290365 -0.498957 87 16 9
-0.230493 -0.290388 -0.498164 88 17 10
-0.230245 -0.290411 -0.497371 88 17 10
-0.229997 -0.290435 -0.496579 87 16 9
-0.229749 -0.290458 -0.495786 88 17 10
-0.229502 -0.290481 -0.494993 87 16 9
-0.229254 -0.290505 -0.494201 87 15 11
-0.228102 -0.291037 -0.493414 87 15 11
-0.228759 -0.290551 -0.492615 85 16 11
-0.229417 -0.290065 -0.491819 85 16 11
-0.229169 -0.290089 -0.491028 85 16 11
-0.228016 -0.290621 -0.490237 85 16 11
-0.226861 -0.291154 -0.489443 85 16 11
-0.225705 -0.291687 -0.488646 85 16 11
-0.225456 -0.291710 -0.487850 86 17 12
-0.223390 -0.292753 -0.487041 85 16 11
-0.223141 -0.292776 -0.486242 83 17 11
-0.222891 -0.292800 -0.485444 83 17 11
-0.221731 -0.293333 -0.484634 83 19 14
-0.220570 -0.293866 -0.483820 85 21 16
-0.220320 -0.293890 -0.483018 88 22 18
-0.223716 -0.291874 -0.482279 92 26 22
-0.221643 -0.292917 -0.481449 94 29 31
-0.219568 -0.293961 -0.480612 98 33 35
-0.217491 -0.295004 -0.479769 101 62 69
-0.239188 -0.290516 -0.539099 86 30 32
-0.238938 -0.290540 -0.538300 87 31 33
-0.238689 -0.290563 -0.537501 96 24 22
-0.238439 -0.290587 -0.536702 95 23 21
-0.238190 -0.290610 -0.535903 96 24 17
-0.237940 -0.290634 -0.535105 96 24 17
-0.237690 -0.290657 -0.534306 97 22 16
-0.238322 -0.290175 -0.533421 97 22 16
-0.238072 -0.290199 -0.532624 97 22 16
-0.237823 -0.290222 -0.531827 97 22 16
-0.237574 -0.290246 -0.531029 97 22 16
-0.237325 -0.290269 -0.530232 97 22 16
-0.237076 -0.290293 -0.529434 95 20 14
-0.236827 -0.290316 -0.528637 95 20 14
-0.237462 -0.289834 -0.527765 97 22 16
-0.237213 -0.289857 -0.526970 95 20 14
-0.236964 -0.289881 -0.526174 95 20 14
-0.236716 -0.289904 -0.525378 95 20 14
-0.236467 -0.289928 -0.524582 93 18 12
-0.236218 -0.289951 -0.523786 92 17 11
-0.235970 -0.289974 -0.522991 92 17 11
-0.236609 -0.289492 -0.522132 92 17 11
-0.236361 -0.289515 -0.521337 92 17 11
-0.236113 -0.289539 -0.520543 92 17 11
-0.236754 -0.289056 -0.519690 92 17 11
-0.236506 -0.289079 -0.518898 91 16 10
-0.235368 -0.289609 -0.518160 91 16 10
-0.235120 -0.289632 -0.517366 91 16 10
-0.234872 -0.289656 -0.516572 91 16 10
-0.235515 -0.289172 -0.515727 90 15 9
-0.235268 -0.289196 -0.514934 90 15 9
-0.235020 -0.289219 -0.514142 90 15 9
-0.234772 -0.289242 -0.513349 90 15 9
-0.234524 -0.289266 -0.512556 90 15 9
-0.234277 -0.289289 -0.511764 90 15 9
-0.234924 -0.288806 -0.510930 90 15 9
-0.234677 -0.288829 -0.510139 88 16 9
-0.234429 -0.288852 -0.509348 88 16 9
-0.234182 -0.288876 -0.508556 85 14 7
-0.233935 -0.288899 -0.507765 85 14 7
-0.233688 -0.288922 -0.506974 87 16 9
-0.233441 -0.288946 -0.506183 88 17 10
-0.233193 -0.288969 -0.505392 88 17 10
-0.232946 -0.288992 -0.504601 87 16 9
-0.232699 -0.289015 -0.503810 87 16 9
-0.232452 -0.289039 -0.503019 87 16 9
-0.232205 -0.289062 -0.502228 87 16 9
-0.231057 -0.289593 -0.501459 87 16 9
-0.230809 -0.289616 -0.500666 87 16 9
-0.230561 -0.289639 -0.499874 87 16 9
-0.230314 -0.289663 -0.499081 87 16 9
-0.230066 -0.289686 -0.498288 87 16 9
-0.229818 -0.289709 -0.497495 87 16 9
-0.229571 -0.289733 -0.496703 87 16 9
-0.229323 -0.289756 -0.495910 87 16 9
-0.229075 -0.289779 -0.495117 87 16 9
-0.227923 -0.290310 -0.494333 83 14 9
-0.227674 -0.290334 -0.493539 85 16 11
-0.227426 -0.290357 -0.492744 83 17 11
-0.228991 -0.289365 -0.491943 83 17 11
-0.227837 -0.289896 -0.491154 83 17 11
-0.226682 -0.290427 -0.490362 81 15 9
-0.226433 -0.290451 -0.489567 81 15 9
-0.225277 -0.290982 -0.488770 83 17 11
-0.223210 -0.292022 -0.487966 83 17 11
-0.222960 -0.292045 -0.487167 81 15 9
-0.221801 -0.292577 -0.486360 80 16 11
-0.221551 -0.292600 -0.485560 80 16 11
-0.220390 -0.293132 -0.484748 80 19 13
-0.219227 -0.293664 -0.483934 82 21 15
-0.218064 -0.294196 -0.483116 87 23 18
-0.222375 -0.291678 -0.482388 91 27 22
-0.220300 -0.292718 -0.481557 92 29 33
-0.218223 -0.293759 -0.480719 92 29 33
-0.216144 -0.294800 -0.479875 110 76 82
-0.238758 -0.289808 -0.539225 85 29 31
-0.238509 -0.289832 -0.538426 87 31 33
-0.237380 -0.290359 -0.537720 96 24 20
-0.238009 -0.289879 -0.536828 95 23 19
-0.237760 -0.289903 -0.536029 95 23 16
-0.237510 -0.289926 -0.535230 95 23 16
-0.237260 -0.289950 -0.534431 97 22 16
-0.237011 -0.289973 -0.533632 97 22 16
-0.236761 -0.289997 -0.532833 95 20 14
-0.236511 -0.290020 -0.532034 95 20 14
-0.236262 -0.290044 -0.531235 95 23 16
-0.236012 -0.290067 -0.530436 93 21 14
-0.235762 -0.290091 -0.529637 93 21 14
-0.235513 -0.290114 -0.528838 93 21 14
-0.236148 -0.289633 -0.527965 93 21 14
-0.235899 -0.289657 -0.527167 93 21 14
-0.235650 -0.289680 -0.526370 92 20 13
-0.236288 -0.289199 -0.525503 92 20 13
-0.236039 -0.289223 -0.524707 91 19 12
-0.235790 -0.289246 -0.523911 90 18 11
-0.235542 -0.289270 -0.523115 90 18 11
-0.235293 -0.289293 -0.522319 90 18 11
-0.235933 -0.288812 -0.521462 89 17 10
-0.235685 -0.288835 -0.520668 89 17 10
-0.235437 -0.288859 -0.519873 89 17 10
-0.234298 -0.289387 -0.519136 89 17 10
-0.234050 -0.289410 -0.518340 89 17 10
-0.233801 -0.289434 -0.517545 88 16 9
-0.234444 -0.288952 -0.516696 88 16 9
-0.234196 -0.288975 -0.515902 86 14 7
-0.233948 -0.288999 -0.515108 86 14 7
-0.233700 -0.289022 -0.514314 86 14 7
-0.233452 -0.289046 -0.513519 88 16 9
-0.234098 -0.288564 -0.512681 86 14 7
-0.233850 -0.288587 -0.511888 86 14 7
-0.233603 -0.288610 -0.511095 86 14 7
-0.233355 -0.288634 -0.510302 85 14 7
-0.233107 -0.288657 -0.509510 85 14 7
-0.232860 -0.288680 -0.508717 85 13 9
-0.232612 -0.288704 -0.507924 85 13 9
-0.232364 -0.288727 -0.507132 87 15 11
-0.232116 -0.288751 -0.506339 87 15 11
-0.231869 -0.288774 -0.505546 87 15 11
-0.231621 -0.288797 -0.504754 87 15 11
-0.231373 -0.288821 -0.503961 87 15 11
-0.231126 -0.288844 -0.503168 87 15 11
-0.230878 -0.288867 -0.502376 87 15 11
-0.229729 -0.289396 -0.501606 87 15 11
-0.229481 -0.289420 -0.500811 87 15 11
-0.229232 -0.289443 -0.500017 87 15 11
-0.228984 -0.289467 -0.499223 85 13 9
-0.228736 -0.289490 -0.498429 85 13 9
-0.228488 -0.289513 -0.497634 83 14 9
-0.228240 -0.289537 -0.496840 85 16 11
-0.227992 -0.289560 -0.496046 83 14 9
-0.227743 -0.289584 -0.495252 83 14 9
-0.227495 -0.289607 -0.494457 81 15 9
-0.226341 -0.290137 -0.493670 81 15 9
-0.227906 -0.289147 -0.492864 81 15 9
-0.227658 -0.289171 -0.492071 81 15 9
-0.226502 -0.289700 -0.491280 81 15 9
-0.225346 -0.290230 -0.490487 81 15 9
-0.225097 -0.290254 -0.489691 81 15 9
-0.223939 -0.290784 -0.488892 81 15 9
-0.221870 -0.291821 -0.488087 82 18 11
-0.221620 -0.291844 -0.487286 80 16 9
-0.220459 -0.292375 -0.486478 78 17 11
-0.220209 -0.292398 -0.485676 78 17 11
-0.219046 -0.292929 -0.484864 79 19 15
-0.217883 -0.293459 -0.484048 81 21 17
-0.216718 -0.293990 -0.483229 85 23 20
-0.221033 -0.291479 -0.482498 89 27 24
-0.218955 -0.292516 -0.481666 93 32 35
-0.216876 -0.293554 -0.480827 93 32 35
-0.214795 -0.294592 -0.479982 113 84 88
-0.237449 -0.289603 -0.539446 84 28 30
-0.237199 -0.289627 -0.538646 87 31 33
-0.236949 -0.289650 -0.537845 96 24 20
-0.236699 -0.289674 -0.537045 94 22 18
-0.236449 -0.289697 -0.536244 95 22 18
-0.236198 -0.289721 -0.535444 93 20 16
-0.235948 -0.289745 -0.534643 93 21 14
-0.235698 -0.289768 -0.533843 93 21 14
-0.236331 -0.289289 -0.532958 93 21 14
-0.236081 -0.289313 -0.532159 92 20 13
-0.235832 -0.289336 -0.531360 93 21 14
-0.235582 -0.289360 -0.530561 93 21 14
-0.235333 -0.289383 -0.529762 92 21 14
-0.235083 -0.289407 -0.528963 92 21 14
-0.235719 -0.288927 -0.528090 91 20 13
-0.235470 -0.288951 -0.527292 91 20 13
-0.235221 -0.288974 -0.526495 91 20 13
-0.234972 -0.288998 -0.525697 91 20 13
-0.234723 -0.289021 -0.524900 89 17 13
-0.234473 -0.289045 -0.524103 88 16 12
-0.234224 -0.289068 -0.523305 89 17 13
-0.234865 -0.288588 -0.522444 89 17 13
-0.235506 -0.288108 -0.521586 88 16 12
-0.235258 -0.288132 -0.520792 88 16 12
-0.235010 -0.288155 -0.519998 88 17 10
-0.233870 -0.288682 -0.519261 88 17 10
-0.233621 -0.288705 -0.518465 87 16 9
-0.233373 -0.288729 -0.517669 87 16 9
-0.234017 -0.288249 -0.516821 87 16 9
-0.233769 -0.288272 -0.516027 85 14 7
-0.233521 -0.288295 -0.515232 85 14 7
-0.233272 -0.288319 -0.514438 85 14 7
-0.233024 -0.288342 -0.513644 85 14 7
-0.233672 -0.287862 -0.512805 85 14 7
-0.233424 -0.287885 -0.512012 85 14 7
-0.233176 -0.287908 -0.511219 85 14 7
-0.232928 -0.287932 -0.510427 85 14 7
-0.232681 -0.287955 -0.509634 85 14 7
-0.232433 -0.287978 -0.508841 85 13 9
-0.232185 -0.288002 -0.508049 85 13 9
-0.231039 -0.288529 -0.507290 87 15 11
-0.230791 -0.288553 -0.506496 87 15 11
-0.230542 -0.288576 -0.505701 87 15 11
-0.230294 -0.288599 -0.504907 87 15 11
-0.230046 -0.288623 -0.504113 87 15 11
-0.229798 -0.288646 -0.503319 87 15 11
-0.229550 -0.288670 -0.502524 87 15 11
-0.229301 -0.288693 -0.501730 87 15 11
-0.229053 -0.288716 -0.500936 87 15 11
-0.228805 -0.288740 -0.500142 85 13 9
-0.228557 -0.288763 -0.499347 83 14 9
-0.228309 -0.288787 -0.498553 83 14 9
-0.228061 -0.288810 -0.497759 83 14 9
-0.227812 -0.288833 -0.496965 83 14 9
-0.227564 -0.288857 -0.496170 83 14 9
-0.227316 -0.288880 -0.495376 82 13 8
-0.226161 -0.289408 -0.494591 80 14 8
-0.225912 -0.289432 -0.493795 81 15 9
-0.226571 -0.288950 -0.492993 81 15 11
-0.226323 -0.288974 -0.492199 81 15 11
-0.225166 -0.289502 -0.491407 81 15 11
-0.224009 -0.290031 -0.490612 81 15 11
-0.223759 -0.290054 -0.489815 80 14 10
-0.222600 -0.290583 -0.489015 81 15 11
-0.220529 -0.291617 -0.488208 80 16 11
-0.220278 -0.291641 -0.487406 80 16 11
-0.219116 -0.292170 -0.486597 77 16 10
-0.218865 -0.292193 -0.485793 77 16 10
-0.217701 -0.292722 -0.484979 77 19 15
-0.216536 -0.293252 -0.484162 79 21 17
-0.215371 -0.293781 -0.483342 84 24 20
-0.219689 -0.291277 -0.482608 88 28 24
-0.217609 -0.292312 -0.481775 93 34 39
-0.215528 -0.293347 -0.480935 93 34 39
-0.213445 -0.294382 -0.480089 119 92 95
-0.236389 -0.289371 -0.540471 111 83 80
-0.236138 -0.289395 -0.539669 85 29 31
-0.235888 -0.289419 -0.538867 87 31 33
-0.235637 -0.289442 -0.538065 93 24 19
-0.235386 -0.289466 -0.537263 92 23 18
-0.235136 -0.289490 -0.536460 92 20 16
-0.234885 -0.289513 -0.535658 92 20 16
-0.235518 -0.289036 -0.534769 92 21 14
-0.235267 -0.289059 -0.533968 92 21 14
-0.235017 -0.289083 -0.533168 92 21 14
-0.234767 -0.289106 -0.532367 91 20 13
-0.234517 -0.289130 -0.531567 92 21 14
-0.234267 -0.289153 -0.530766 92 21 14
-0.234017 -0.289177 -0.529966 89 21 13
-0.233767 -0.289201 -0.529165 89 21 13
-0.234403 -0.288723 -0.528289 89 20 15
-0.234154 -0.288746 -0.527491 89 20 15
-0.233904 -0.288770 -0.526692 89 20 15
-0.233654 -0.288793 -0.525893 89 20 15
-0.234294 -0.288315 -0.525025 87 18 13
-0.234044 -0.288338 -0.524228 86 17 12
-0.232905 -0.288864 -0.523496 86 17 12
-0.233546 -0.288385 -0.522633 87 18 13
-0.234188 -0.287907 -0.521773 86 17 12
-0.233939 -0.287930 -0.520977 86 17 12
-0.233690 -0.287954 -0.520181 88 17 10
-0.233442 -0.287977 -0.519386 88 17 10
-0.232300 -0.288503 -0.518646 87 16 9
-0.232051 -0.288526 -0.517848 87 16 9
-0.232696 -0.288047 -0.516998 87 16 9
-0.232447 -0.288071 -0.516202 85 14 7
-0.232198 -0.288094 -0.515407 85 14 7
-0.231054 -0.288620 -0.514659 87 16 9
-0.231701 -0.288141 -0.513815 85 14 7
-0.231452 -0.288165 -0.513019 85 14 7
-0.232101 -0.287686 -0.512180 85 14 7
-0.231852 -0.287709 -0.511386 85 14 7
-0.231604 -0.287732 -0.510591 85 14 7
-0.231356 -0.287756 -0.509797 85 14 7
-0.231108 -0.287779 -0.509003 85 13 9
-0.230860 -0.287802 -0.508209 85 13 9
-0.230611 -0.287826 -0.507414 87 15 11
-0.230363 -0.287849 -0.506620 87 15 11
-0.230115 -0.287873 -0.505826 85 13 9
-0.229867 -0.287896 -0.505032 87 15 11
-0.229619 -0.287919 -0.504237 85 16 11
-0.229371 -0.287943 -0.503443 85 16 11
-0.229122 -0.287966 -0.502649 85 16 11
-0.228874 -0.287990 -0.501855 83 14 9
-0.228626 -0.288013 -0.501060 85 16 11
-0.228378 -0.288036 -0.500266 83 14 9
-0.228130 -0.288060 -0.499472 83 14 9
-0.227881 -0.288083 -0.498678 83 14 9
-0.227633 -0.288107 -0.497883 83 14 9
-0.227385 -0.288130 -0.497089 83 14 9
-0.227137 -0.288153 -0.496295 83 14 9
-0.226889 -0.288177 -0.495501 83 14 9
-0.225733 -0.288704 -0.494715 80 14 10
-0.225484 -0.288727 -0.493919 80 14 10
-0.226144 -0.288247 -0.493118 81 15 11
-0.224987 -0.288774 -0.492328 81 15 11
-0.223829 -0.289301 -0.491535 79 15 10
-0.223579 -0.289325 -0.490737 79 15 10
-0.222420 -0.289852 -0.489939 79 15 10
-0.221259 -0.290379 -0.489138 80 16 11
-0.220097 -0.290907 -0.488334 78 17 11
-0.218935 -0.291434 -0.487527 78 17 11
-0.218684 -0.291458 -0.486723 76 16 12
-0.217519 -0.291986 -0.485911 76 16 12
-0.216354 -0.292513 -0.485095 75 17 13
-0.215188 -0.293041 -0.484277 78 20 16
-0.214021 -0.293569 -0.483456 82 24 22
-0.219258 -0.290568 -0.482734 87 29 27
-0.217177 -0.291600 -0.481901 93 36 43
-0.215094 -0.292632 -0.481061 94 37 44
-0.213009 -0.293665 -0.480216 134 110 112
-0.235957 -0.288661 -0.540597 108 77 75
-0.235707 -0.288685 -0.539795 89 28 31
-0.235456 -0.288708 -0.538993 90 29 32
-0.235206 -0.288732 -0.538190 95 23 19
-0.234955 -0.288755 -0.537388 94 22 18
-0.234704 -0.288779 -0.536586 92 20 16
-0.234454 -0.288803 -0.535784 92 20 16
-0.235087 -0.288327 -0.534894 92 20 16
-0.234837 -0.288350 -0.534094 91 19 15
-0.234587 -0.288374 -0.533293 91 19 15
-0.234336 -0.288397 -0.532493 90 18 14
-0.234086 -0.288421 -0.531692 92 20 16
-0.233836 -0.288444 -0.530892 91 19 15
-0.233586 -0.288468 -0.530091 89 20 15
-0.233336 -0.288492 -0.529290 89 20 15
-0.233086 -0.288515 -0.528490 89 20 15
-0.232835 -0.288539 -0.527689 89 20 15
-0.232585 -0.288562 -0.526889 89 20 15
-0.233224 -0.288086 -0.526018 89 20 15
-0.232975 -0.288109 -0.525219 87 18 13
-0.232725 -0.288133 -0.524420 86 17 12
-0.232476 -0.288156 -0.523621 86 17 12
-0.232226 -0.288180 -0.522822 87 18 13
-0.232868 -0.287703 -0.521960 86 17 12
-0.232619 -0.287726 -0.521163 86 17 12
-0.232370 -0.287750 -0.520366 86 17 12
-0.233014 -0.287272 -0.519510 86 17 12
-0.230978 -0.288297 -0.518827 86 17 12
-0.231622 -0.287820 -0.517973 85 16 11
-0.231373 -0.287843 -0.517176 85 16 11
-0.231124 -0.287867 -0.516379 83 14 9
-0.230875 -0.287890 -0.515581 83 14 9
-0.229729 -0.288415 -0.514832 85 16 11
-0.230376 -0.287937 -0.513987 85 16 11
-0.230127 -0.287961 -0.513189 83 14 9
-0.230776 -0.287483 -0.512348 83 14 9
-0.231425 -0.287006 -0.511510 83 14 9
-0.231177 -0.287029 -0.510716 85 16 11
-0.230929 -0.287052 -0.509922 83 14 9
-0.230680 -0.287076 -0.509127 83 14 9
-0.229532 -0.287600 -0.508369 83 14 9
-0.229284 -0.287624 -0.507573 85 16 11
-0.229035 -0.287647 -0.506777 85 16 11
-0.228786 -0.287671 -0.505981 85 16 11
-0.228537 -0.287694 -0.505186 85 16 11
-0.228289 -0.287718 -0.504390 85 16 11
-0.228040 -0.287741 -0.503594 85 16 11
-0.227791 -0.287764 -0.502798 85 16 11
-0.227543 -0.287788 -0.502002 83 14 9
-0.227294 -0.287811 -0.501207 85 16 11
-0.227045 -0.287835 -0.500411 85 16 11
-0.226797 -0.287858 -0.499615 85 16 11
-0.226548 -0.287882 -0.498819 83 14 9
-0.226299 -0.287905 -0.498023 83 17 11
-0.226051 -0.287928 -0.497227 80 14 8
-0.225802 -0.287952 -0.496432 80 14 10
-0.225553 -0.287975 -0.495636 81 15 11
-0.225305 -0.287999 -0.494840 80 14 10
-0.225056 -0.288022 -0.494044 80 14 10
-0.224807 -0.288046 -0.493248 81 15 11
-0.224559 -0.288069 -0.492453 81 15 11
-0.223400 -0.288595 -0.491660 80 16 11
-0.222240 -0.289121 -0.490863 79 15 10
-0.221078 -0.289647 -0.490064 79 15 10
-0.219916 -0.290173 -0.489262 80 16 11
-0.218753 -0.290699 -0.488456 78 17 11
-0.217589 -0.291225 -0.487647 77 16 10
-0.217338 -0.291249 -0.486842 76 16 12
-0.216172 -0.291775 -0.486029 76 16 12
-0.215006 -0.292301 -0.485212 73 18 13
-0.213838 -0.292828 -0.484392 77 22 17
-0.212670 -0.293355 -0.483570 82 24 24
-0.217911 -0.290362 -0.482845 87 29 29
-0.215828 -0.291391 -0.482011 89 37 44
-0.213743 -0.292420 -0.481170 91 39 46
-0.234645 -0.288449 -0.540821 104 74 69
-0.234393 -0.288472 -0.540018 88 28 28
-0.234142 -0.288496 -0.539214 90 30 30
-0.233891 -0.288520 -0.538410 96 24 20
-0.233640 -0.288543 -0.537607 94 22 18
-0.233389 -0.288567 -0.536803 92 20 16
-0.233138 -0.288591 -0.535999 92 20 16
-0.233771 -0.288116 -0.535108 91 19 15
-0.233521 -0.288140 -0.534306 91 19 15
-0.233270 -0.288163 -0.533503 91 19 15
-0.233019 -0.288187 -0.532701 90 18 14
-0.232769 -0.288210 -0.531899 90 21 16
-0.233405 -0.287735 -0.531017 89 20 15
-0.233155 -0.287759 -0.530216 87 21 15
-0.232905 -0.287783 -0.529416 88 22 16
-0.232655 -0.287806 -0.528615 88 22 16
-0.232405 -0.287830 -0.527815 87 21 15
-0.232155 -0.287853 -0.527014 87 21 17
-0.232795 -0.287378 -0.526143 87 21 17
-0.232545 -0.287401 -0.525344 85 19 13
-0.232295 -0.287425 -0.524545 84 18 12
-0.232046 -0.287448 -0.523746 87 18 13
-0.231796 -0.287472 -0.522947 87 18 13
-0.232439 -0.286996 -0.522085 86 17 12
-0.232190 -0.287020 -0.521288 86 17 12
-0.231941 -0.287043 -0.520491 86 17 12
-0.232585 -0.286568 -0.519635 86 17 12
-0.230548 -0.287590 -0.518952 86 17 12
-0.231193 -0.287114 -0.518098 85 16 11
-0.230944 -0.287137 -0.517301 85 16 11
-0.230695 -0.287161 -0.516504 83 14 9
-0.230446 -0.287184 -0.515706 85 16 11
-0.229299 -0.287707 -0.514958 85 16 11
-0.229947 -0.287231 -0.514111 85 16 11
-0.229698 -0.287255 -0.513314 86 17 12
-0.230347 -0.286778 -0.512473 86 17 12
-0.230998 -0.286302 -0.511635 85 16 11
-0.230750 -0.286325 -0.510840 85 16 11
-0.230501 -0.286349 -0.510046 85 16 11
-0.230253 -0.286372 -0.509252 85 16 11
-0.229104 -0.286896 -0.508494 85 16 11
-0.228855 -0.286919 -0.507698 85 16 11
-0.228607 -0.286942 -0.506902 85 16 11
-0.228358 -0.286966 -0.506106 85 16 11
-0.228109 -0.286989 -0.505310 85 16 11
-0.227861 -0.287013 -0.504515 85 16 11
-0.227612 -0.287036 -0.503719 85 16 11
-0.227363 -0.287060 -0.502923 85 16 11
-0.226210 -0.287583 -0.502151 86 17 12
-0.225961 -0.287607 -0.501353 86 17 12
-0.225711 -0.287630 -0.500556 86 17 12
-0.225462 -0.287654 -0.499758 84 18 12
-0.225213 -0.287677 -0.498961 84 18 12
-0.224964 -0.287701 -0.498164 84 24 22
-0.224715 -0.287724 -0.497366 93 33 31
-0.224466 -0.287748 -0.496569 81 31 26
-0.224216 -0.287771 -0.495771 70 20 15
-0.223967 -0.287795 -0.494974 78 13 11
-0.224628 -0.287317 -0.494169 79 14 12
-0.224379 -0.287341 -0.493373 80 16 11
-0.223220 -0.287865 -0.492582 80 16 11
-0.222059 -0.288390 -0.491788 80 16 11
-0.221810 -0.288413 -0.490989 80 16 11
-0.220648 -0.288938 -0.490190 79 15 10
-0.219485 -0.289462 -0.489387 80 16 11
-0.218321 -0.289987 -0.488582 78 17 11
-0.217156 -0.290512 -0.487774 77 16 10
-0.215990 -0.291037 -0.486962 76 17 10
-0.214824 -0.291562 -0.486147 76 17 10
-0.213656 -0.292087 -0.485329 73 18 13
-0.212487 -0.292612 -0.484508 77 22 17
-0.212233 -0.292636 -0.483697 82 27 26
-0.216563 -0.290153 -0.482956 86 31 30
-0.214478 -0.291179 -0.482121 90 38 47
-0.212390 -0.292206 -0.481280 101 49 58
-0.233330 -0.288234 -0.541047 103 73 68
-0.233078 -0.288257 -0.540241 88 28 28
-0.232827 -0.288281 -0.539436 90 30 30
-0.232575 -0.288305 -0.538631 96 24 20
-0.232324 -0.288328 -0.537826 94 22 18
-0.232072 -0.288352 -0.537020 92 20 16
-0.231820 -0.288376 -0.536215 92 20 16
-0.232454 -0.287903 -0.535322 90 21 16
-0.232203 -0.287926 -0.534518 89 20 15
-0.231952 -0.287950 -0.533714 89 20 15
-0.231701 -0.287974 -0.532911 88 19 14
-0.231450 -0.287997 -0.532107 90 21 16
-0.232087 -0.287524 -0.531223 89 20 15
-0.231836 -0.287547 -0.530421 88 22 16
-0.231585 -0.287571 -0.529619 88 22 16
-0.231335 -0.287595 -0.528817 90 24 20
-0.231084 -0.287618 -0.528014 88 22 18
-0.231724 -0.287144 -0.527140 84 22 19
-0.231474 -0.287168 -0.526339 80 18 15
-0.231224 -0.287191 -0.525539 74 16 12
-0.231865 -0.286717 -0.524670 75 17 13
-0.230723 -0.287239 -0.523938 84 20 15
-0.230473 -0.287262 -0.523137 84 20 15
-0.231116 -0.286788 -0.522273 84 20 15
-0.230867 -0.286811 -0.521474 85 21 16
-0.230617 -0.286835 -0.520676 85 19 15
-0.231262 -0.286361 -0.519818 85 19 15
-0.229222 -0.287380 -0.519134 85 19 15
-0.229868 -0.286906 -0.518279 84 18 14
-0.229618 -0.286929 -0.517480 80 14 10
-0.229369 -0.286953 -0.516681 78 12 8
-0.229119 -0.286976 -0.515882 76 16 12
-0.228870 -0.287000 -0.515083 76 16 12
-0.228620 -0.287023 -0.514284 75 15 11
-0.228370 -0.287047 -0.513485 75 15 11
-0.228121 -0.287070 -0.512686 71 16 11
-0.229671 -0.286097 -0.511802 71 16 11
-0.229422 -0.286120 -0.511006 70 15 10
-0.229173 -0.286144 -0.510210 70 15 10
-0.228925 -0.286167 -0.509414 70 15 10
-0.227774 -0.286689 -0.508655 71 16 11
-0.227525 -0.286713 -0.507857 76 14 11
-0.227276 -0.286736 -0.507060 80 18 15
-0.227027 -0.286760 -0.506263 83 18 16
-0.226777 -0.286783 -0.505465 83 18 16
-0.226528 -0.286807 -0.504668 83 18 16
-0.226279 -0.286830 -0.503870 83 18 16
-0.226030 -0.286854 -0.503073 80 15 13
-0.225781 -0.286877 -0.502276 79 14 12
-0.225532 -0.286901 -0.501478 71 18 12
-0.225282 -0.286924 -0.500681 72 19 13
-0.225033 -0.286948 -0.499883 68 18 13
-0.224784 -0.286971 -0.499086 72 22 17
-0.224535 -0.286995 -0.498289 88 51 48
-0.224286 -0.287018 -0.497491 131 94 91
-0.224037 -0.287041 -0.496694 137 105 99
-0.223787 -0.287065 -0.495896 116 84 78
-0.223538 -0.287088 -0.495099 83 23 19
-0.224200 -0.286613 -0.494294 77 17 13
-0.223040 -0.287135 -0.493504 80 15 13
-0.222791 -0.287159 -0.492707 82 17 15
-0.221629 -0.287682 -0.491913 80 16 11
-0.220467 -0.288205 -0.491116 80 16 11
-0.219304 -0.288728 -0.490315 80 16 11
-0.219053 -0.288752 -0.489513 80 16 11
-0.217889 -0.289275 -0.488708 78 17 11
-0.216723 -0.289799 -0.487900 77 16 10
-0.215556 -0.290322 -0.487088 77 18 11
-0.213473 -0.291346 -0.486266 76 17 10
-0.212304 -0.291869 -0.485447 72 19 13
-0.212050 -0.291893 -0.484636 76 23 17
-0.210880 -0.292417 -0.483812 81 28 26
-0.215213 -0.289941 -0.483068 85 32 30
-0.213126 -0.290965 -0.482232 88 38 46
-0.211036 -0.291989 -0.481389 108 58 66
-0.232897 -0.287520 -0.541173 102 70 66
-0.232645 -0.287544 -0.540368 88 28 26
-0.232394 -0.287568 -0.539562 90 30 28
-0.232142 -0.287592 -0.538757 94 25 20
-0.231890 -0.287615 -0.537952 92 23 18
-0.231639 -0.287639 -0.537147 90 21 16
-0.231387 -0.287663 -0.536341 90 21 16
-0.232022 -0.287191 -0.535448 90 21 16
-0.231771 -0.287214 -0.534644 89 20 15
-0.231520 -0.287238 -0.533840 89 20 17
-0.231268 -0.287262 -0.533037 89 20 17
-0.231017 -0.287285 -0.532233 90 24 20
-0.230766 -0.287309 -0.531429 88 22 18
-0.230515 -0.287333 -0.530626 89 25 20
-0.231154 -0.286860 -0.529744 90 26 21
-0.230903 -0.286884 -0.528942 82 22 20
-0.230652 -0.286908 -0.528140 97 37 35
-0.231293 -0.286435 -0.527265 109 72 67
-0.231043 -0.286459 -0.526465 127 90 85
-0.230793 -0.286482 -0.525664 115 88 82
-0.230543 -0.286506 -0.524864 103 76 70
-0.230293 -0.286530 -0.524063 90 47 42
-0.230042 -0.286553 -0.523263 67 24 19
-0.229792 -0.286577 -0.522462 72 22 17
-0.229542 -0.286600 -0.521661 74 24 19
-0.229292 -0.286624 -0.520861 70 20 15
-0.229938 -0.286151 -0.520002 72 22 17
-0.227895 -0.287168 -0.519317 74 21 17
-0.228542 -0.286695 -0.518459 76 23 19
-0.228291 -0.286718 -0.517659 109 61 57
-0.228041 -0.286742 -0.516858 126 78 74
-0.227791 -0.286765 -0.516058 114 78 70
-0.227541 -0.286789 -0.515257 104 68 60
-0.227291 -0.286812 -0.514457 117 85 79
-0.227041 -0.286836 -0.513656 135 103 97
-0.226791 -0.286860 -0.512856 142 117 108
-0.228342 -0.285889 -0.511969 138 113 104
-0.228093 -0.285913 -0.511172 121 89 83
-0.227843 -0.285936 -0.510374 119 87 81
-0.227594 -0.285960 -0.509577 125 90 85
-0.226442 -0.286480 -0.508816 121 86 81
-0.226193 -0.286504 -0.508017 97 56 50
-0.225943 -0.286527 -0.507218 68 27 21
-0.225693 -0.286551 -0.506419 71 23 19
-0.225444 -0.286574 -0.505620 75 27 23
-0.225194 -0.286598 -0.504821 75 25 22
-0.224944 -0.286621 -0.504023 74 24 21
-0.224695 -0.286645 -0.503224 91 49 46
-0.224445 -0.286668 -0.502425 127 85 82
-0.224195 -0.286692 -0.501626 138 111 105
-0.223946 -0.286716 -0.500827 146 119 113
-0.223696 -0.286739 -0.500028 137 118 112
-0.223447 -0.286763 -0.499229 122 103 97
-0.223197 -0.286786 -0.498430 104 85 81
-0.222947 -0.286810 -0.497631 114 95 91
-0.222698 -0.286833 -0.496832 120 98 90
-0.222448 -0.286857 -0.496033 105 83 75
-0.222198 -0.286880 -0.495234 89 34 31
-0.222860 -0.286406 -0.494427 75 20 17
-0.221699 -0.286927 -0.493636 82 17 15
-0.221449 -0.286951 -0.492837 82 17 15
-0.220287 -0.287472 -0.492042 80 16 11
-0.219123 -0.287994 -0.491243 82 18 13
-0.217958 -0.288516 -0.490441 80 16 11
-0.217707 -0.288540 -0.489638 80 16 11
-0.217456 -0.288563 -0.488834 78 17 11
-0.215374 -0.289584 -0.488022 78 17 11
-0.214206 -0.290106 -0.487209 77 17 13
-0.213037 -0.290628 -0.486393 77 17 13
-0.211867 -0.291151 -0.485574 74 21 17
-0.210696 -0.291673 -0.484752 77 24 20
-0.210442 -0.291697 -0.483939 82 29 27
-0.213862 -0.289726 -0.483181 86 33 31
-0.211772 -0.290747 -0.482343 84 36 44
-0.209680 -0.291769 -0.481500 116 68 76
-0.232464 -0.286807 -0.541299 98 66 62
-0.232212 -0.286831 -0.540494 88 28 26
-0.231960 -0.286855 -0.539689 90 30 28
-0.231709 -0.286878 -0.538883 94 25 20
-0.231457 -0.286902 -0.538078 93 24 19
-0.231205 -0.286926 -0.537273 90 21 16
-0.230954 -0.286950 -0.536468 90 21 16
-0.230702 -0.286973 -0.535662 90 21 16
-0.230451 -0.286997 -0.534857 90 21 16
-0.230199 -0.287021 -0.534052 90 21 16
-0.229947 -0.287044 -0.533247 89 20 15
-0.229696 -0.287068 -0.532441 90 24 20
-0.229444 -0.287092 -0.531636 90 24 20
-0.229192 -0.287116 -0.530831 90 26 21
-0.229832 -0.286645 -0.529948 91 27 22
-0.229580 -0.286668 -0.529144 109 63 59
-0.229329 -0.286692 -0.528340 143 97 93
-0.229970 -0.286221 -0.527464 137 124 113
-0.229720 -0.286245 -0.526662 134 121 110
-0.229469 -0.286268 -0.525860 131 120 111
-0.230112 -0.285797 -0.524989 131 120 111
-0.228968 -0.286315 -0.524255 124 108 103
-0.229612 -0.285844 -0.523388 103 87 82
-0.229362 -0.285868 -0.522587 108 86 78
-0.229111 -0.285891 -0.521787 134 112 104
-0.228861 -0.285915 -0.520986 139 121 110
-0.229508 -0.285443 -0.520127 140 122 111
-0.227464 -0.286457 -0.519443 138 115 110
-0.227213 -0.286481 -0.518641 110 87 82
-0.227861 -0.286009 -0.517784 101 74 68
-0.227611 -0.286033 -0.516984 118 91 85
-0.227360 -0.286056 -0.516183 112 92 84
-0.227110 -0.286080 -0.515383 113 93 85
-0.226860 -0.286103 -0.514582 122 108 100
-0.226610 -0.286127 -0.513782 122 108 100
-0.226360 -0.286151 -0.512981 123 112 103
-0.227913 -0.285183 -0.512094 121 110 101
-0.227663 -0.285206 -0.511297 112 89 84
-0.227414 -0.285230 -0.510499 107 84 79
-0.227165 -0.285253 -0.509702 110 87 82
-0.226013 -0.285773 -0.508942 111 88 83
-0.225763 -0.285796 -0.508143 118 99 93
-0.225513 -0.285820 -0.507344 133 114 108
-0.225264 -0.285843 -0.506545 124 106 97
-0.225014 -0.285867 -0.505746 117 99 90
-0.224764 -0.285890 -0.504947 122 100 92
-0.224515 -0.285914 -0.504148 128 106 98
-0.224265 -0.285937 -0.503349 101 78 73
-0.224015 -0.285961 -0.502550 107 84 79
-0.223766 -0.285984 -0.501751 106 92 86
-0.223516 -0.286008 -0.500952 119 105 99
-0.223266 -0.286031 -0.500153 122 115 109
-0.223017 -0.286055 -0.499354 117 110 104
-0.222767 -0.286078 -0.498555 113 106 100
-0.222517 -0.286102 -0.497756 110 103 97
-0.222268 -0.286126 -0.496957 117 101 94
-0.222018 -0.286149 -0.496158 106 90 83
-0.221768 -0.286173 -0.495359 88 35 33
-0.222431 -0.285699 -0.494552 75 22 20
-0.221269 -0.286220 -0.493761 82 17 15
-0.221019 -0.286243 -0.492962 82 17 15
-0.219856 -0.286763 -0.492167 82 17 15
-0.218691 -0.287284 -0.491369 82 17 15
